ply
format ascii 1.0
element vertex 885
property float x
property float y
property float z
property uchar red
property uchar green
property uchar blue
end_header
-3.097834 0.951486 5.250124 24 22 18
-2.238053 -3.410906 4.104796 81 72 65
-2.238053 -3.410906 4.104796 81 72 65
-1.827543 -3.374626 3.926480 209 209 206
-1.816476 -3.372046 3.933301 92 84 80
-1.793375 -3.396522 3.908863 248 249 251
-1.766699 -3.333554 3.925288 209 201 195
-1.723436 -3.313929 3.893943 246 245 243
-1.722051 -1.792311 4.721206 203 173 171
-1.660765 -1.825963 4.697381 255 255 255
-1.595898 -1.526450 4.883760 125 54 76
-1.675485 -0.874430 5.151991 157 149 155
-1.601492 -1.497526 4.940043 40 11 29
-1.744869 -1.268465 5.384066 112 114 125
-1.744869 -1.268465 5.384066 112 114 125
-1.743815 -1.283495 5.393996 15 13 27
-1.737079 -0.980786 5.378598 156 153 162
-1.753610 -1.208179 5.452654 20 18 29
-1.617421 -1.369762 5.061744 125 96 92
-1.615659 -1.397714 5.059702 114 91 88
-1.461323 -1.700368 4.589108 37 32 54
-1.588537 -1.481913 4.995454 117 51 69
-1.715462 -1.266500 5.406929 70 70 83
-1.726436 -1.176728 5.453517 134 122 125
-1.693970 -1.314148 5.352121 81 72 83
-1.590687 -1.425034 5.038497 33 16 31
-1.721004 -1.056662 5.459808 151 145 152
-1.703517 -0.937022 5.413427 46 19 28
-1.697264 -1.244928 5.397281 16 16 25
-1.673318 -1.318136 5.346171 33 21 31
-1.724808 -0.829593 5.511483 126 101 107
-1.681248 -1.253645 5.399092 137 125 134
-1.579173 -1.382681 5.074383 26 12 27
-1.711911 -0.833402 5.536158 35 16 22
-1.711911 -0.833402 5.536158 35 16 22
-1.572618 -1.438528 5.092862 43 17 29
-1.689944 -1.013167 5.477673 151 144 151
-1.681706 -1.049403 5.459647 122 121 127
-1.564048 -1.397636 5.079278 109 54 75
-1.681442 -1.090324 5.487163 37 44 67
-1.555819 -1.487355 5.083375 117 64 81
-1.674483 -0.952897 5.475497 45 47 56
-1.658394 -1.217186 5.438061 40 38 53
-1.664846 -1.075560 5.470504 136 136 140
-1.546903 -1.406231 5.094273 37 13 27
-1.656284 -1.177839 5.455138 138 145 163
-1.635988 -1.257375 5.395983 64 33 37
-1.662282 -1.015857 5.483159 119 119 129
-1.633253 -1.298697 5.390634 138 123 124
-1.539788 -1.494828 5.084012 41 4 15
-1.539788 -1.494828 5.084012 41 4 15
-1.661739 -1.094849 5.493335 142 141 146
-1.652722 -1.216882 5.464616 47 49 65
-1.650116 -1.201953 5.458216 112 115 125
-1.651818 -0.968289 5.465284 141 140 143
-1.612474 -1.303287 5.351606 74 47 51
-1.533045 -1.479802 5.088849 132 69 86
-1.537956 -1.543885 5.124663 145 104 122
-1.638817 -0.996079 5.468266 137 137 143
-1.633399 -0.962101 5.473882 51 58 79
-1.623644 -0.744107 5.459214 64 58 48
-1.633398 -1.167897 5.493383 28 38 58
-1.623724 -1.052948 5.466808 138 137 139
-1.600714 -1.290322 5.394433 136 123 118
-1.600714 -1.290322 5.394433 136 123 118
-1.614366 -1.195109 5.443959 119 120 127
-1.614366 -1.195109 5.443959 119 120 127
-1.621100 -0.973978 5.472145 140 139 142
-1.575460 -1.417852 5.333608 37 26 32
-1.510913 -1.532033 5.116112 38 19 31
-1.615085 -1.053990 5.474162 149 149 153
-1.612305 -0.947441 5.468302 144 143 149
-1.637608 -0.806200 5.562301 27 18 23
-1.618310 -0.849328 5.499732 48 42 53
-1.605678 -0.998118 5.459333 143 142 145
-1.520630 -1.377324 5.176111 23 8 19
-1.509955 -1.386373 5.152473 118 61 76
-1.605102 -0.886689 5.480046 31 33 44
-1.601387 -0.922599 5.471214 47 46 59
-1.594919 -1.018674 5.467023 159 157 163
-1.603052 -0.857809 5.497385 139 138 142
-1.494037 -1.579725 5.127092 118 73 88
-1.589799 -0.942365 5.475441 146 146 149
-1.490199 -1.542454 5.135299 117 70 88
-1.581107 -1.005364 5.461575 56 63 73
-1.584578 -1.089215 5.490841 153 153 154
-1.585735 -0.868287 5.500078 48 59 79
-1.582709 -0.848956 5.498740 140 141 142
-1.575089 -0.865548 5.494513 140 140 146
-1.568239 -0.947149 5.474488 30 35 53
-1.573206 -0.903937 5.492752 76 82 93
-1.559019 -1.001145 5.450635 170 170 171
-1.574326 -1.925659 5.515235 108 104 119
-1.494388 -1.422779 5.236952 36 15 27
-1.561750 -1.371443 5.476378 20 9 16
-1.563379 -0.910335 5.489077 64 62 73
-1.569172 -1.945600 5.517650 29 30 48
-1.569172 -1.945600 5.517650 29 30 48
-1.560226 -1.960520 5.515121 77 75 96
-1.460546 -1.557639 5.164368 63 29 46
-1.549110 -0.962485 5.475592 66 77 96
-1.549110 -0.962485 5.475592 66 77 96
-1.548686 -1.825851 5.480720 51 51 69
-1.481435 -1.398935 5.238985 24 14 24
-1.559384 -1.922413 5.525270 30 29 49
-1.481280 -1.526753 5.243145 28 5 18
-1.481280 -1.526753 5.243145 28 5 18
-1.549895 -0.889842 5.488105 162 163 165
-1.553201 -1.938101 5.523059 107 107 117
-1.543779 -1.841542 5.493453 117 111 119
-1.549332 -0.836178 5.510317 52 67 86
-1.549332 -0.836178 5.510317 52 67 86
-1.548228 -1.957323 5.528909 28 30 58
-1.471121 -1.481298 5.251341 33 16 28
-1.471121 -1.481298 5.251341 33 16 28
-1.549073 -1.904312 5.537121 27 28 50
-1.541621 -0.871112 5.505202 56 71 88
-1.533859 -1.852628 5.486967 35 32 56
-1.465248 -1.434843 5.237627 135 109 116
-1.537458 -0.996310 5.494730 65 79 104
-1.543097 -1.051843 5.533794 69 80 94
-1.533566 -1.967465 5.514529 81 81 101
-1.524510 -1.733174 5.484794 35 27 52
-1.533364 -1.903125 5.545921 121 117 131
-1.447718 -1.478096 5.240120 104 64 72
-1.514897 -1.719195 5.488089 96 96 108
-1.567780 -1.147177 5.678966 50 51 62
-1.517500 -1.769969 5.510888 33 35 56
-1.517691 -0.792109 5.511699 28 15 21
-1.517788 -1.961070 5.523287 31 35 57
-1.518574 -0.892205 5.523180 28 32 43
-1.517633 -0.826898 5.522694 121 123 129
-1.511624 -1.785315 5.513219 109 110 121
-1.506355 -1.706075 5.493100 27 22 36
-1.506355 -1.706075 5.493100 27 22 36
-1.516176 -1.944171 5.545268 17 21 39
-1.531182 -1.308583 5.593854 159 146 147
-1.518175 -1.898027 5.556356 28 29 48
-1.514439 -1.023091 5.543420 58 74 99
-1.514439 -1.023091 5.543420 58 74 99
-1.505490 -0.850137 5.518772 64 78 100
-1.511804 -1.925995 5.557488 24 26 47
-1.498021 -0.837185 5.526083 157 159 159
-1.462737 -1.043254 5.399539 115 116 119
-1.505343 -0.990589 5.562657 164 162 164
-1.491271 -1.791710 5.523344 115 113 128
-1.483917 -1.702822 5.495718 33 34 53
-1.536060 -1.121459 5.695333 113 111 114
-1.493839 -1.952852 5.554777 41 39 60
-1.496178 -1.031779 5.602596 61 70 88
-1.496178 -1.031779 5.602596 61 70 88
-1.428998 -1.443416 5.362869 145 141 146
-1.487301 -1.908447 5.590465 109 109 119
-1.487301 -1.908447 5.590465 109 109 119
-1.464416 -1.688611 5.502520 18 23 39
-1.444492 -1.494456 5.432277 25 23 40
-1.444492 -1.494456 5.432277 25 23 40
-1.444492 -1.494456 5.432277 25 23 40
-1.472380 -0.863595 5.535511 38 40 49
-1.474646 -1.771216 5.557621 28 30 51
-1.490884 -1.038256 5.631848 149 148 153
-1.468042 -1.752731 5.553251 142 142 151
-1.483260 -1.032276 5.613735 148 150 153
-1.465943 -1.953291 5.561790 108 107 121
-1.455760 -1.693230 5.521006 133 134 148
-1.455760 -1.693230 5.521006 133 134 148
-1.473246 -1.905844 5.597203 19 22 39
-1.426916 -1.506574 5.424245 119 119 126
-1.451601 -1.674218 5.520734 34 31 48
-1.411877 -1.428687 5.374694 130 125 131
-1.450267 -1.656086 5.523742 151 144 157
-1.475785 -1.013454 5.629137 65 69 83
-1.459509 -1.940540 5.576278 33 35 56
-1.511525 -1.145457 5.767939 105 97 103
-1.416296 -1.497237 5.429909 27 27 48
-1.416296 -1.497237 5.429909 27 27 48
-1.450186 -1.741409 5.564810 139 136 145
-1.453279 -1.923747 5.582072 117 117 129
-1.440379 -1.676757 5.534331 142 137 144
-1.414376 -1.522135 5.435123 36 39 58
-1.446607 -1.946305 5.575600 117 115 126
-1.463923 -1.002669 5.644711 162 161 164
-1.395533 -1.429690 5.386183 34 33 48
-1.395533 -1.429690 5.386183 34 33 48
-1.446604 -1.910130 5.596125 32 36 58
-1.464155 -0.988433 5.659718 61 68 82
-1.464155 -0.988433 5.659718 61 68 82
-1.444108 -1.790869 5.589805 25 27 37
-1.440974 -1.932892 5.588961 30 30 40
-1.401326 -1.508884 5.430039 138 137 146
-1.401326 -1.508884 5.430039 138 137 146
-1.401326 -1.508884 5.430039 138 137 146
-1.448292 -1.860002 5.634635 20 23 39
-1.454270 -0.978530 5.670471 163 162 166
-1.461604 -0.951127 5.708424 53 72 96
-1.389123 -1.497953 5.433237 29 30 49
-1.389123 -1.497953 5.433237 29 30 49
-1.377920 -1.429208 5.391169 157 155 164
-1.435041 -1.882222 5.623121 19 24 45
-1.414305 -0.852999 5.535597 146 147 153
-1.377543 -1.414377 5.394877 21 18 29
-1.428866 -1.904022 5.611065 34 37 52
-1.428866 -1.904022 5.611065 34 37 52
-1.429744 -1.867345 5.634192 130 129 136
-1.379675 -1.461309 5.437006 132 130 141
-1.377837 -1.485611 5.436908 156 153 162
-1.377837 -1.485611 5.436908 156 153 162
-1.377837 -1.485611 5.436908 156 153 162
-1.445873 -0.951740 5.713730 155 154 159
-1.419439 -1.849327 5.637269 36 38 51
-1.417305 -1.875417 5.639482 27 26 46
-1.417305 -1.875417 5.639482 27 26 46
-1.366559 -1.473980 5.443742 28 31 58
-1.418456 -1.838626 5.660858 128 122 135
-1.423232 -1.266482 5.675073 95 57 66
-1.435875 -0.975600 5.732205 164 159 163
-1.352213 -1.460224 5.441689 147 144 156
-1.352213 -1.460224 5.441689 147 144 156
-1.352514 -1.483111 5.447386 151 150 157
-1.485160 -1.130875 5.982345 155 147 145
-1.421022 -0.847146 5.723577 115 115 125
-1.427257 -0.950598 5.751434 55 67 87
-1.402682 -1.871669 5.663423 34 35 61
-1.406290 -1.810473 5.691809 137 138 146
-1.427917 -1.344911 5.779212 115 96 98
-1.457046 -1.161412 5.899374 138 128 124
-1.429619 -1.737568 5.797467 31 29 41
-1.397726 -1.858198 5.678401 128 128 141
-1.397726 -1.858198 5.678401 128 128 141
-1.400988 -1.796297 5.709618 22 21 37
-1.400988 -1.796297 5.709618 22 21 37
-1.331982 -1.427668 5.426596 142 144 149
-1.393539 -1.844560 5.688974 25 27 42
-1.393539 -1.844560 5.688974 25 27 42
-1.366341 -1.517471 5.574061 96 100 113
-1.443235 -1.138362 5.919768 153 138 138
-1.325966 -1.458287 5.442845 155 155 165
-1.521263 0.591633 6.246354 147 138 121
-1.397300 -1.747988 5.751687 27 26 40
-1.397300 -1.747988 5.751687 27 26 40
-1.318401 -1.430825 5.438706 27 32 51
-1.410746 -0.935145 5.837814 42 48 63
-1.383211 -1.817995 5.745764 27 31 48
-1.383211 -1.817995 5.745764 27 31 48
-1.386447 -1.805992 5.762930 114 113 123
-1.386818 -1.793099 5.772327 31 31 48
-1.305716 -1.434886 5.454108 158 161 167
-1.424898 -1.168661 5.967888 157 148 151
-1.424898 -1.168661 5.967888 157 148 151
-1.428256 -1.092938 5.990471 61 66 77
-1.369858 -1.826840 5.757560 128 127 134
-1.369858 -1.826840 5.757560 128 127 134
-1.414524 -1.135122 5.944391 140 128 130
-1.422443 -1.106842 6.005922 144 144 150
-1.411456 -1.059308 5.995793 145 142 143
-1.376956 -1.370551 5.858996 120 105 106
-1.403765 -1.039826 6.002828 162 158 160
-1.368581 -1.389255 5.874392 95 79 88
-1.282289 -1.405303 5.509014 34 25 30
-1.363943 -1.292390 5.893385 56 68 92
-1.385174 -1.044423 5.985313 64 72 83
-1.375681 -1.222779 5.947069 150 141 149
-1.382135 -1.109708 6.001952 148 146 148
-1.365355 -1.247422 5.930222 145 142 153
-1.379443 -1.060909 5.996279 148 145 143
-1.379443 -1.060909 5.996279 148 145 143
-1.383126 -1.020570 6.014042 147 147 149
-1.352689 -1.377228 5.887325 130 115 123
-1.380797 -0.937017 6.017905 151 147 150
-1.380797 -0.937017 6.017905 151 147 150
-1.345687 -1.345859 5.882885 143 130 135
-1.363639 -1.188819 5.961036 126 125 130
-1.346482 -1.289827 5.901616 141 135 143
-1.346482 -1.289827 5.901616 141 135 143
-1.349566 -1.167667 5.946897 85 61 64
-1.335892 -1.365860 5.900849 86 59 61
-1.333635 -1.333679 5.900797 60 33 51
-1.359416 -1.018773 6.040966 153 152 154
-1.321739 -1.345483 5.897638 136 121 126
-1.352058 -1.038271 6.034298 67 81 95
-1.352058 -1.038271 6.034298 67 81 95
-1.343527 -1.028929 6.035002 74 81 98
-1.309323 -1.351552 5.913172 85 55 60
-1.326437 -1.161278 6.029140 134 122 129
-1.326437 -1.161278 6.029140 134 122 129
-1.333787 -1.031095 6.070203 151 148 149
-1.289571 -1.249165 5.889313 154 150 156
-1.327166 -1.057049 6.068199 66 69 80
-1.299327 -1.309563 5.972982 52 62 89
-1.330554 -0.927657 6.139831 63 65 75
-1.288651 -1.364161 5.973326 90 57 63
-1.274125 -1.343043 5.961384 146 136 136
-1.274125 -1.343043 5.961384 146 136 136
-1.345613 -1.138699 6.308567 54 55 61
-1.295878 -0.927775 6.172057 100 98 101
-1.298126 -1.021848 6.191126 36 36 43
-1.279879 -0.995025 6.152929 153 150 152
-1.284375 -1.045577 6.191520 54 57 64
-1.284375 -1.045577 6.191520 54 57 64
-1.250444 -1.361055 6.083988 152 139 142
-1.250444 -1.361055 6.083988 152 139 142
-1.246703 -1.424231 6.084526 122 105 111
-1.268020 -0.946907 6.210060 143 143 144
-1.210329 -1.562523 5.964713 8 4 8
-1.213658 -1.556757 5.992983 14 9 13
-1.263459 -0.910161 6.232009 159 154 158
-1.249017 -0.986123 6.188567 159 157 162
-1.226794 -1.417396 6.102463 132 120 128
-1.253331 -0.935449 6.229461 59 88 124
-1.246762 -1.050663 6.218921 56 77 104
-1.246762 -1.050663 6.218921 56 77 104
-1.260290 -1.130909 6.302083 37 41 52
-1.213371 -1.392268 6.107273 142 131 132
-1.213371 -1.392268 6.107273 142 131 132
-1.217239 -1.011764 6.205369 70 77 90
-1.216926 -1.154180 6.245467 138 126 127
-1.216926 -1.154180 6.245467 138 126 127
-1.167065 -1.536497 6.050563 101 82 82
-1.200481 -1.062949 6.220197 149 147 148
-1.205990 -0.941538 6.272786 68 76 89
-1.205990 -0.941538 6.272786 68 76 89
-1.196818 -0.948584 6.272786 78 84 98
-1.196267 -1.017044 6.289310 157 155 161
-1.189828 -0.981847 6.273709 159 156 158
-1.186567 -0.925790 6.269503 167 165 170
-1.183301 -1.158453 6.338770 82 77 82
-1.173969 -1.033966 6.290769 54 79 110
-1.160328 -1.056198 6.314433 162 161 159
-1.149238 -0.983188 6.320321 152 151 153
-1.147210 -1.054598 6.331560 58 72 88
-1.147210 -1.054598 6.331560 58 72 88
-1.143950 -1.005232 6.317739 64 76 97
-1.142751 -0.962848 6.322124 62 79 113
-1.133894 -1.194307 6.295790 143 133 132
-1.145692 -1.150113 6.404481 153 151 155
-1.130748 -0.939795 6.351546 159 158 157
-1.123328 -1.010330 6.340649 167 163 162
-1.120519 -0.968787 6.334429 165 164 176
-1.123933 -1.244656 6.371978 150 142 144
-1.087417 -0.983138 6.358572 167 165 167
-1.087417 -0.983138 6.358572 167 165 167
-1.088781 -1.021650 6.372736 163 160 161
-1.058056 -1.010234 6.407942 165 168 162
-1.052287 -1.027511 6.424912 68 80 100
-1.034712 -1.060483 6.527494 140 136 144
-1.016244 -1.000756 6.470741 67 81 108
-1.010702 -0.960400 6.461110 154 153 159
-0.967403 -0.938174 6.519165 25 17 18
-0.965940 -0.959852 6.519534 166 162 162
-0.949646 -0.969018 6.537097 28 21 19
-0.793575 -2.832337 9.461452 40 31 37
-0.793575 -2.832337 9.461452 40 31 37
-0.664685 1.467396 8.815071 79 68 44
-0.644148 1.468586 8.664128 73 64 46
-0.442355 1.534266 7.343190 75 67 54
-0.206010 1.495391 9.403047 29 26 16
-0.206010 1.495391 9.403047 29 26 16
-0.206010 1.495391 9.403047 29 26 16
-0.136184 1.536634 8.768783 108 94 68
-0.136184 1.536634 8.768783 108 94 68
-0.088376 1.563228 7.260055 37 34 22
-0.090030 1.549315 7.587986 89 82 66
-0.093193 1.526662 8.990665 23 23 19
-0.093193 1.526662 8.990665 23 23 19
0.023691 1.459725 10.378303 33 27 15
0.023691 1.459725 10.378303 33 27 15
0.098777 5.851892 24.238340 138 132 107
0.053089 1.121377 11.528357 130 119 97
0.112800 1.475344 10.177993 33 30 19
0.114283 1.542102 9.314948 91 85 69
0.074043 2.751310 3.924624 122 115 100
0.085789 2.741822 3.972783 118 110 97
0.095584 2.745335 3.904837 130 124 109
0.216112 1.548521 8.463211 40 37 24
0.106878 2.743330 3.887906 78 71 48
0.114327 2.749149 3.857476 72 66 50
0.122757 2.746896 3.893535 121 115 103
0.123050 2.757965 3.853258 128 123 109
0.234929 1.576780 7.320807 134 119 93
0.238357 1.574226 7.147709 32 28 12
0.132682 2.744786 3.876526 54 48 30
0.141783 2.763024 3.888038 130 126 112
0.152744 2.748844 3.932059 119 112 97
0.277678 1.544104 5.824832 58 55 37
0.491320 1.446675 10.020877 51 48 46
0.491320 1.446675 10.020877 51 48 46
1.537949 8.919016 31.778658 97 91 81
0.197599 2.749882 3.863658 126 119 104
0.314717 1.528464 5.916759 160 149 130
0.222467 2.746164 4.119771 116 109 93
0.322354 1.548010 5.744446 23 21 6
0.567434 1.311140 10.268947 13 11 14
0.445755 1.586867 7.485400 110 102 81
0.230546 2.755600 3.816208 85 78 62
0.361522 1.591775 5.760851 26 22 16
0.361522 1.591775 5.760851 26 22 16
0.635807 1.231268 10.137569 85 69 47
0.382886 1.549358 5.867415 130 122 98
0.252266 2.754551 3.870787 131 124 108
0.389174 1.563573 5.844398 29 24 10
0.521798 1.589636 7.794659 43 36 22
0.295630 2.751719 4.131446 64 57 38
0.346148 1.621683 4.646069 48 57 50
0.348502 1.604677 4.657809 97 109 96
0.318089 2.748940 4.161201 70 64 50
0.464993 1.578682 5.956556 18 17 10
0.779748 1.512489 9.967179 78 78 73
0.779748 1.512489 9.967179 78 78 73
0.424665 1.580776 5.302199 190 175 145
0.424665 1.580776 5.302199 190 175 145
0.487084 1.545620 6.083363 167 155 133
0.688208 1.609150 8.533012 43 35 22
0.510099 1.554491 6.109062 44 37 24
0.387650 1.634772 4.625100 149 144 99
0.387650 1.634772 4.625100 149 144 99
0.387650 1.634772 4.625100 149 144 99
0.523254 1.562944 6.086423 142 135 119
0.361627 2.743229 4.164536 84 77 58
0.615733 1.579433 7.116416 31 25 15
0.406746 1.659410 4.622137 62 73 69
0.879396 1.292835 10.086109 96 82 61
0.379812 2.748332 4.255023 92 83 69
0.396797 2.748814 4.385909 160 152 139
0.346162 2.760723 3.847271 79 71 58
0.827215 1.637731 9.172786 35 30 18
0.350464 2.762937 3.872369 130 122 109
0.736219 1.577815 7.985157 32 27 11
0.757275 1.599934 7.971577 29 23 8
0.892190 1.642261 9.305341 25 23 14
0.610074 1.548665 6.264722 91 84 65
0.616262 1.660301 6.173651 121 112 101
0.616262 1.660301 6.173651 121 112 101
0.625717 1.591068 6.244238 106 98 79
1.087706 1.215432 10.477710 50 47 35
0.468402 2.764097 4.422478 143 135 122
0.394125 2.770450 3.765194 88 81 66
1.039918 1.598593 9.888030 10 8 8
1.067432 1.579795 9.958665 66 66 62
0.480343 2.757444 4.420693 107 99 86
1.076777 1.628386 9.947509 10 8 3
0.694989 1.584042 6.371321 17 17 9
0.701531 1.564978 6.370294 97 89 80
0.505016 2.761960 4.474078 151 145 141
0.551533 1.459475 4.812874 22 28 38
1.154637 1.359011 10.101357 76 62 36
0.556763 1.416391 4.807191 152 157 156
0.555525 1.427042 4.795217 26 34 42
0.751355 1.646175 6.453106 107 95 77
0.756883 1.572419 6.500105 117 103 85
0.530295 2.761425 4.516439 141 133 125
0.463706 2.757890 3.977294 129 120 110
0.539375 2.754555 4.538076 143 140 125
0.772494 1.684484 6.483040 31 25 13
0.772494 1.684484 6.483040 31 25 13
0.573454 1.436565 4.771297 30 35 42
0.573454 1.436565 4.771297 30 35 42
0.546985 2.756952 4.524202 98 91 73
0.860639 1.561972 7.142123 43 37 21
0.578218 1.410604 4.763447 31 41 40
0.579172 1.470871 4.752606 46 54 64
0.724238 1.602200 5.932563 75 86 74
0.560973 1.677123 4.551536 44 55 61
0.593432 1.412038 4.773038 74 89 93
0.593432 1.412038 4.773038 74 89 93
0.824412 1.629198 6.596195 124 115 94
0.573101 1.694138 4.546397 58 68 73
0.532982 2.755936 4.207670 88 81 65
0.605235 1.387807 4.771306 90 100 108
0.605235 1.387807 4.771306 90 100 108
0.749321 1.604357 5.867616 180 173 109
0.615766 1.371292 4.781139 88 97 108
0.863241 1.653319 6.659811 115 103 82
0.603545 2.774775 4.634312 93 89 73
0.524043 2.763090 4.004870 134 127 110
0.896776 1.559776 6.817752 40 38 26
0.629817 2.763669 4.684505 76 70 54
0.610246 1.756112 4.487061 8 20 38
8.006022 12.217297 59.191990 89 84 64
1.439866 1.226364 10.582033 80 71 66
0.815671 1.602526 5.944514 48 53 58
0.963640 1.599306 6.880430 36 33 24
1.388061 1.661022 9.906242 5 4 0
0.544270 2.766889 3.875682 131 123 106
0.636622 2.768795 4.485466 144 136 123
0.636622 2.768795 4.485466 144 136 123
1.412261 1.660833 9.864379 8 9 7
1.277289 1.621157 8.896104 22 19 7
0.677154 2.769109 4.673301 81 75 63
0.623352 2.763387 4.239857 145 138 122
0.637096 2.762593 4.285984 140 133 117
0.604544 2.768407 4.042034 144 138 125
1.291898 1.641613 8.593345 31 30 18
1.074787 1.603103 7.092032 30 22 10
1.324868 1.645794 8.690251 84 78 59
0.678179 2.762109 4.407160 149 141 128
1.092601 1.614906 7.111960 127 120 102
1.115340 1.624049 7.156944 21 18 10
1.121662 1.609082 7.182481 127 114 99
1.108344 1.677282 7.087179 24 22 27
1.016885 1.617201 6.493560 63 47 53
0.734257 1.474949 4.615422 64 78 86
0.746502 1.492758 4.604084 11 16 21
1.202675 1.594701 7.353922 120 109 84
0.755697 1.467151 4.612742 46 56 56
1.193549 1.673472 7.268054 109 103 96
1.215638 1.574532 7.403101 42 35 20
1.215638 1.574532 7.403101 42 35 20
1.114789 1.628841 6.718976 134 83 88
0.680928 2.767755 4.110962 147 137 121
1.252254 1.578726 7.541423 110 99 69
0.783325 1.429598 4.685422 94 110 120
0.778935 1.459440 4.596715 156 163 162
1.129955 1.625556 6.661081 52 53 65
0.776241 1.493597 4.578302 24 33 41
0.785787 1.428000 4.631613 54 64 66
0.780563 1.494995 4.597918 35 51 59
1.810027 1.302385 10.559827 86 78 64
0.792176 1.487060 4.581300 145 154 155
1.797143 1.265585 10.360733 95 90 73
1.619390 1.648990 9.314722 28 24 10
0.840660 1.377577 4.813169 37 39 44
0.789617 1.631270 4.512772 49 70 97
0.816726 1.440166 4.661666 176 181 180
1.362953 1.588656 7.748703 83 79 53
0.734185 2.771556 4.162158 142 133 118
0.806937 1.498798 4.557650 52 68 70
0.823423 1.392959 4.639476 28 32 36
1.725675 1.576720 9.683709 45 44 40
1.385421 1.594079 7.716236 35 27 10
1.403548 1.596185 7.798207 127 112 96
1.267564 1.627788 7.033779 115 82 79
1.628049 1.651035 9.027638 79 72 55
0.839960 1.431532 4.647742 61 80 85
1.394039 1.650145 7.673254 22 20 10
1.416118 1.628566 7.768072 93 90 74
0.854197 1.424048 4.661785 45 61 60
0.859178 1.488244 4.657715 173 173 173
1.435010 1.615973 7.803222 24 22 9
1.435010 1.615973 7.803222 24 22 9
1.432094 1.662345 7.744850 79 76 65
1.432094 1.662345 7.744850 79 76 65
1.731776 1.657698 9.293825 29 26 21
1.434228 1.671144 7.672825 31 34 41
0.846782 1.740336 4.384658 169 103 106
1.266921 1.641743 6.513937 53 51 53
1.882912 1.556831 9.668817 38 37 32
0.961846 1.419343 4.900458 87 101 108
0.790246 2.778833 4.029412 131 124 106
0.819953 2.778208 4.150225 146 139 121
0.869251 1.658124 4.388278 86 91 80
0.960293 1.440178 4.845351 149 153 155
0.960293 1.440178 4.845351 149 153 155
1.951249 1.686064 9.817548 9 9 6
0.874671 1.688786 4.390452 143 139 108
0.804902 2.778683 4.051099 137 128 111
1.415268 1.665106 7.083099 41 45 53
1.311737 1.650276 6.528820 39 48 59
1.685211 1.618157 8.388862 31 25 12
0.969419 1.441253 4.813101 65 83 88
0.917094 1.481040 4.523724 167 170 168
1.970618 1.615844 9.728451 72 68 65
0.995622 1.441343 4.890499 172 174 172
0.893596 1.667866 4.380927 129 105 95
0.920792 1.480458 4.501616 59 84 89
0.885578 2.778952 4.314528 147 140 124
1.473310 1.653000 7.163789 47 50 55
0.819420 2.780168 3.994058 137 128 111
1.708156 1.687012 8.267119 115 98 83
0.944136 1.468903 4.566894 177 179 177
0.856726 2.775213 4.147148 94 87 69
1.358538 1.658672 6.553852 124 95 92
0.932825 1.462675 4.498919 84 102 110
0.934575 2.776199 4.492462 119 111 97
2.163943 1.387443 10.439065 85 79 61
1.695739 1.714445 8.148009 42 36 35
1.867294 1.641611 8.956885 103 94 76
1.775633 1.638616 8.499708 22 15 6
0.956802 1.455536 4.570787 176 177 175
0.915774 1.746529 4.358616 163 88 91
1.764670 1.679776 8.383335 22 19 12
0.949933 2.783758 4.502296 59 51 33
0.944555 1.500481 4.483832 24 32 36
0.922951 1.693214 4.376276 25 36 35
0.817787 2.786702 3.897135 84 77 61
1.805035 1.671038 8.533291 26 26 19
0.828352 2.786098 3.928802 155 148 136
1.653553 1.657938 7.791657 116 68 66
0.957987 1.479438 4.488227 24 40 45
0.933521 2.784454 4.359953 147 139 126
0.981718 1.458509 4.556444 176 177 176
0.971390 1.485163 4.476466 69 88 89
0.978506 1.460510 4.489162 52 65 71
0.984375 1.467656 4.481791 88 105 113
0.984375 1.467656 4.481791 88 105 113
2.319981 1.508641 10.550247 90 83 71
0.961375 2.785710 4.306099 102 95 77
1.010286 1.457384 4.523430 92 110 119
1.009763 1.455527 4.518950 92 110 119
2.038171 1.664760 9.100052 134 117 98
1.981508 1.770700 8.843204 39 33 28
1.571803 1.685920 6.985299 38 41 53
1.137765 1.432134 5.041482 32 43 44
2.501727 1.523972 10.906920 12 10 11
2.133134 1.655315 9.263039 16 13 5
1.528981 1.688427 6.618388 59 54 47
1.001943 2.786101 4.335210 148 143 131
1.017279 1.630687 4.393521 48 68 93
2.517035 1.588290 10.775069 10 8 9
1.600913 1.691416 6.826285 51 44 55
0.967604 2.789358 4.129196 101 93 77
2.175223 1.738008 9.227715 23 20 15
2.175223 1.738008 9.227715 23 20 15
2.652986 1.507860 11.229138 67 56 43
1.098100 2.795877 4.625632 98 95 83
1.741503 1.694896 7.338582 129 95 90
2.206913 1.758303 9.280653 89 81 63
0.935884 2.794423 3.932546 151 141 130
1.496161 1.673009 6.238946 48 48 59
2.809724 1.378658 11.692536 7 5 1
1.028052 1.825575 4.256135 4 1 6
2.801013 1.453844 11.608603 60 55 50
1.031354 1.814803 4.262364 63 76 82
2.830492 1.403966 11.694098 80 72 72
1.068685 2.786350 4.383167 133 124 114
1.056523 2.790311 4.323629 147 141 123
1.081516 2.788458 4.413092 135 128 118
1.013062 2.792649 4.126676 148 141 125
2.511564 1.679378 10.086567 78 72 52
2.480225 0.797881 9.907059 24 13 11
1.888509 1.732683 7.539925 119 76 71
1.888509 1.732683 7.539925 119 76 71
1.113968 1.462756 4.447216 66 71 75
2.521521 1.733984 10.015841 30 24 11
2.667240 1.682737 10.598806 83 77 69
1.863439 1.710551 7.329734 47 37 48
1.657628 1.695120 6.489074 53 45 47
1.031385 2.797460 4.041887 150 142 131
2.644410 1.715175 10.285074 109 99 92
1.873426 1.711910 7.257347 100 82 85
2.393086 1.757297 9.220715 37 33 27
1.147614 1.467359 4.378508 35 43 50
1.147614 1.467359 4.378508 35 43 50
2.813498 1.688128 10.725594 44 40 31
1.150114 1.473722 4.366923 78 98 107
1.643375 1.691230 6.197887 134 120 99
1.311768 1.453465 4.949664 22 28 34
1.332161 1.448247 5.016890 161 162 159
1.092662 2.794876 4.123218 152 149 134
1.164776 1.462614 4.382375 98 114 127
2.903957 1.738204 10.894927 106 97 83
1.159522 1.477852 4.343758 22 32 37
2.951108 1.692895 11.000761 105 97 87
2.960109 1.690758 11.031169 103 95 85
1.167139 2.801371 4.312981 151 146 135
3.035504 1.757579 11.037472 26 22 10
1.198164 1.452257 4.351875 174 176 175
1.195564 1.475782 4.331919 29 42 60
1.752820 1.705694 6.314789 46 53 62
1.220742 1.452422 4.364503 101 118 116
1.204630 1.645626 4.289454 139 97 113
1.204630 1.645626 4.289454 139 97 113
1.204630 1.645626 4.289454 139 97 113
2.668716 1.773329 9.473908 42 37 36
1.211697 1.644830 4.303378 62 43 61
1.218365 1.472768 4.324852 38 50 53
2.602227 1.773973 9.208640 42 34 32
1.268421 2.803226 4.472235 29 23 12
1.228168 1.642622 4.302764 120 83 93
2.296531 1.753326 7.965286 44 38 42
1.244903 1.476088 4.304242 90 101 111
1.201932 2.801640 4.154959 100 93 75
3.248789 1.740394 11.154547 15 10 7
2.331381 1.763039 7.974416 39 38 45
1.808088 1.668984 6.030475 137 93 77
1.255288 1.805390 4.169834 85 104 113
1.290445 1.457506 4.273657 44 58 58
1.842647 1.665523 6.079443 35 34 42
1.273083 1.807259 4.199586 43 59 82
1.269808 2.807670 4.184687 162 155 140
1.269808 2.807670 4.184687 162 155 140
3.018306 1.649429 9.895763 134 127 113
2.522923 1.806563 8.180487 38 31 26
1.311761 1.454881 4.262549 47 63 69
1.855548 1.686887 5.980539 57 51 58
1.334729 2.811579 4.295632 139 134 116
2.982043 1.793271 9.551466 83 57 59
3.000690 1.815380 9.589005 86 62 61
3.000690 1.815380 9.589005 86 62 61
2.381032 1.789877 7.597064 48 43 44
1.336781 1.454179 4.253317 34 48 48
1.351850 1.444213 4.274575 62 82 91
1.363763 1.567605 4.288256 31 34 38
1.550948 1.482279 4.866083 8 18 18
1.380283 1.445732 4.330732 100 119 126
2.027267 1.727616 6.263093 62 56 69
1.399902 2.819295 4.324235 136 131 115
1.332497 2.819785 4.101773 90 83 67
1.940327 1.706392 5.927808 72 65 72
1.383112 1.459169 4.236835 17 25 31
2.003562 1.730342 6.095203 120 102 82
1.419672 1.442039 4.326658 88 111 113
1.398752 1.453533 4.262102 35 44 49
1.426809 1.448684 4.305119 54 65 70
3.193930 1.779640 9.604171 20 21 21
3.178524 1.824693 9.542993 141 123 99
2.156453 1.748080 6.453788 57 57 58
2.055253 1.726880 6.071988 143 132 111
1.417115 2.825216 4.195555 97 90 70
3.279402 1.857881 9.642870 34 29 30
3.279402 1.857881 9.642870 34 29 30
2.240956 1.762628 6.579853 52 52 49
3.281605 1.782639 9.620644 40 19 19
1.472464 2.826148 4.318823 126 118 107
1.571888 1.431530 4.580269 92 108 109
1.419374 1.733870 4.140783 15 22 30
3.299801 1.775338 9.576982 30 16 11
2.759236 1.878885 7.988022 46 45 47
3.389505 1.741358 9.809923 43 37 34
1.528993 1.438556 4.397476 25 29 30
1.528993 1.438556 4.397476 25 29 30
1.558894 1.426923 4.481425 24 28 34
1.570700 1.406082 4.519134 169 171 168
1.445407 1.699616 4.160107 89 103 103
3.466434 1.752749 9.908476 39 32 23
1.444242 1.753011 4.139758 84 95 89
3.444515 1.760736 9.774727 85 55 40
3.482237 1.747556 9.877583 133 118 87
3.482237 1.747556 9.877583 133 118 87
3.489208 1.731193 9.875701 139 123 88
2.317131 1.760239 6.544803 151 146 126
1.568697 2.829293 4.425608 81 73 59
1.630324 1.427828 4.579322 52 67 70
3.449510 1.967037 9.591049 20 21 29
1.645947 1.570662 4.578287 27 31 33
2.431154 1.801361 6.741170 130 131 117
1.746777 1.391822 4.801795 162 167 171
3.002270 1.923377 8.159404 113 88 83
2.591802 1.811683 6.813455 90 85 91
2.848228 1.872205 7.385816 112 81 82
3.557763 2.012031 9.128539 117 101 97
3.557763 2.012031 9.128539 117 101 97
1.929287 1.682437 4.940796 79 91 88
2.214616 1.727985 5.655980 45 59 59
3.000262 1.906974 7.630759 47 45 51
3.252417 1.958236 8.262190 50 40 46
3.827986 2.031999 9.705667 15 10 10
4.146864 1.747529 10.517457 49 35 35
4.146864 1.747529 10.517457 49 35 35
2.348487 1.745390 5.913155 57 51 56
2.366539 1.726737 5.948567 121 86 84
1.854807 1.654845 4.677452 42 43 42
2.180954 1.717557 5.488733 44 57 60
2.300735 1.732269 5.780334 170 149 125
2.232742 1.721391 5.574630 57 63 66
3.899452 2.000747 9.667045 67 68 58
2.460524 1.752013 6.066651 125 89 93
3.928705 2.035225 9.658809 10 8 8
2.444176 1.753462 5.996201 136 95 100
4.156177 1.890274 10.124283 98 68 75
2.206360 1.723364 5.358358 67 56 68
2.459972 1.757845 5.957632 130 92 91
4.080373 2.012024 9.835999 93 62 59
2.033142 1.683628 4.905143 41 49 64
3.119866 1.896805 7.419084 101 78 81
2.582959 1.780756 6.145128 126 98 102
1.978793 1.674230 4.700893 146 88 100
1.978793 1.674230 4.700893 146 88 100
4.102525 2.051889 9.652538 12 11 7
4.233290 2.108395 9.892678 13 11 10
4.233290 2.108395 9.892678 13 11 10
4.338904 1.924877 10.128872 95 64 73
4.338904 1.924877 10.128872 95 64 73
2.201091 1.684856 5.143413 186 178 126
3.039144 1.874739 7.033202 52 47 47
2.274334 1.682367 5.266505 55 58 69
2.166852 1.684065 5.019238 49 61 67
4.301942 2.119189 9.869944 9 1 1
2.394793 1.723050 5.504981 92 57 60
2.530637 1.746166 5.797057 62 69 81
2.091022 1.668137 4.782417 181 174 135
2.325357 1.698546 5.310130 196 178 148
2.220152 1.697134 5.035847 154 152 137
2.220152 1.697134 5.035847 154 152 137
4.331314 2.104326 9.775721 21 19 24
3.387554 1.926427 7.630975 46 41 44
2.611809 1.747627 5.882948 89 92 76
2.597306 1.735055 5.838794 85 87 73
4.454764 2.096394 9.989959 141 125 102
2.524444 1.731355 5.650114 58 62 71
2.284734 1.699515 5.118094 50 60 68
4.493811 1.980188 9.971168 38 38 42
4.493811 1.980188 9.971168 38 38 42
4.420197 2.106048 9.773727 26 25 22
4.420197 2.106048 9.773727 26 25 22
2.407305 1.696541 5.333810 52 39 46
4.687212 1.956180 10.336605 88 49 33
4.687212 1.956180 10.336605 88 49 33
4.568243 2.020392 10.048655 34 34 37
4.820425 1.928213 10.584170 125 122 96
2.184103 1.677098 4.809088 74 63 69
4.548097 2.034653 9.957860 34 33 37
2.913020 1.808160 6.377554 48 43 50
2.913020 1.808160 6.377554 48 43 50
3.333049 1.886744 7.294644 92 72 74
2.314441 1.704624 5.077641 56 60 64
2.247628 1.694896 4.926761 109 76 58
2.189742 1.685402 4.798433 51 53 69
2.939770 1.806932 6.418554 98 81 84
5.268304 1.938197 11.459618 91 91 78
2.213662 1.683403 4.816163 165 96 89
2.177151 1.682601 4.733681 156 105 97
3.392368 1.888214 7.336737 103 75 77
5.260972 1.909611 11.365993 64 66 56
2.276171 1.689267 4.911645 75 46 54
2.276171 1.689267 4.911645 75 46 54
2.654136 1.737747 5.714251 59 57 63
2.758790 1.761632 5.931713 71 71 59
2.414241 1.740283 5.109259 149 85 80
2.414241 1.740283 5.109259 149 85 80
2.260755 1.683973 4.785539 165 94 88
4.867254 1.995272 10.226242 103 63 65
4.323456 2.086633 9.044007 44 40 39
2.557230 1.712020 5.340049 98 99 95
2.677640 1.714836 5.582086 42 45 49
3.075381 1.821355 6.395030 153 150 135
2.952349 1.786750 6.104948 123 84 83
4.825007 2.060216 9.953716 94 55 56
4.825007 2.060216 9.953716 94 55 56
2.943383 1.782086 6.038349 48 41 42
3.378218 1.861472 6.900833 141 138 126
3.465621 1.877327 7.008122 53 53 56
2.561533 1.719433 5.179931 61 70 79
2.435747 1.700097 4.905037 69 61 70
2.427218 1.704184 4.877453 59 59 67
2.743906 1.706183 5.501181 57 50 52
5.087544 2.093953 10.141435 93 59 49
5.087544 2.093953 10.141435 93 59 49
5.087544 2.093953 10.141435 93 59 49
2.437880 1.704043 4.845611 56 41 54
2.797210 1.726039 5.545517 71 64 71
2.797210 1.726039 5.545517 71 64 71
2.727531 1.705878 5.390553 61 49 58
2.525438 1.712219 4.961481 155 85 73
2.525438 1.712219 4.961481 155 85 73
2.846124 1.715613 5.542917 164 160 92
2.530230 1.725977 4.929523 186 178 133
2.858620 1.746198 5.535541 62 60 66
2.638198 1.737984 5.092776 49 59 66
2.931535 1.739093 5.651763 168 166 111
2.853880 1.749320 5.481026 129 96 90
2.598717 1.742803 4.996101 49 61 65
3.057407 1.759620 5.853149 168 169 129
7.599532 2.304414 14.501590 108 111 110
2.683843 1.740600 5.141482 44 53 55
2.670821 1.768036 5.111936 59 70 74
3.044173 1.752154 5.805164 52 59 54
2.728679 1.750074 5.206889 153 95 96
3.018995 1.751157 5.751894 59 69 70
2.656318 1.775525 5.034400 174 168 134
3.110646 1.764714 5.853011 49 57 62
2.645126 1.792054 4.983737 42 49 54
2.603720 1.842972 4.907343 46 56 58
2.682010 1.832832 5.037108 46 56 60
2.744261 1.798631 5.152399 48 57 52
2.758013 1.808989 5.146787 172 160 114
2.695798 1.905858 5.002835 154 143 109
2.695798 1.905858 5.002835 154 143 109
2.693866 1.899719 4.996418 154 143 109
4.353888 1.957252 8.016335 37 41 44
4.353888 1.957252 8.016335 37 41 44
2.782230 1.868853 5.139438 50 44 48
2.758183 1.892985 5.083850 123 73 74
2.885941 1.864600 5.295423 148 108 100
3.342533 1.802256 6.096525 122 89 79
3.072083 1.855100 5.541539 85 88 84
3.343295 1.842767 6.018791 52 44 42
3.234542 1.845071 5.815038 34 29 31
3.174346 1.864399 5.705782 103 81 77
3.918484 1.876586 7.012485 34 30 27
3.212607 1.871230 5.754984 39 40 52
3.167931 1.890709 5.658007 93 82 86
3.961042 1.896702 6.966893 34 27 24
4.240300 1.942347 7.417833 50 38 37
2.967236 2.984432 5.205168 41 33 22
4.185713 1.958673 7.196127 151 135 108
