ply
format ascii 1.0
element vertex 565
property float x
property float y
property float z
property uchar red
property uchar green
property uchar blue
end_header
-0.143967 0.494142 5.949315 75 67 54
-0.068908 0.631558 4.626950 153 148 106
-0.061641 0.596812 4.664935 81 80 48
-0.057562 0.699950 4.627405 8 6 2
-0.059438 0.553951 4.924217 82 69 49
-0.050591 0.670113 4.631264 11 6 6
-0.050591 0.670113 4.631264 11 6 6
-0.034771 0.570353 4.763609 168 158 135
-0.029077 0.631711 4.662774 13 13 10
-0.017234 0.584067 4.752657 135 123 106
-0.017234 0.584067 4.752657 135 123 106
-0.014944 0.589860 4.753071 26 23 11
-0.011599 0.565591 4.815402 42 34 21
-0.001949 0.586568 4.777542 25 23 13
-0.001949 0.586568 4.777542 25 23 13
-0.001159 0.561267 4.831865 169 157 142
0.004335 0.578844 4.807849 41 36 25
0.006583 0.547070 5.063852 56 45 18
0.012242 0.563679 4.839273 164 161 131
0.012242 0.563679 4.839273 164 161 131
0.019648 0.664312 4.564110 43 51 63
0.051394 0.556747 4.936124 114 106 90
0.052855 0.584170 4.592086 161 107 115
0.073185 0.494872 5.774664 134 119 93
0.057624 0.669216 4.487787 78 93 90
0.064820 0.551614 4.959223 26 22 12
0.075102 0.499787 5.704500 32 28 12
0.063391 0.577515 4.667789 153 116 120
0.063391 0.577515 4.667789 153 116 120
0.060759 0.664698 4.482137 36 54 56
0.065058 0.665411 4.486947 79 101 94
0.079830 0.548032 4.987225 123 112 93
0.085475 0.561288 4.976555 22 19 7
0.085475 0.561288 4.976555 22 19 7
0.094888 0.565850 4.985250 24 24 16
0.096589 0.580934 4.987999 100 100 98
0.108013 0.528107 5.141574 160 149 130
0.111974 0.541539 5.054897 23 21 6
0.136903 0.488418 5.787461 110 102 81
0.125291 0.555248 5.055573 26 22 16
0.125291 0.555248 5.055573 26 22 16
0.134103 0.541505 5.090862 29 24 10
0.156696 0.477941 5.883750 43 36 22
0.120705 0.641058 4.447280 163 87 92
0.129233 0.658927 4.418769 181 177 121
0.130613 0.616723 4.441255 48 57 50
0.131438 0.609645 4.447893 97 109 96
0.158668 0.540666 5.130350 18 17 10
0.137676 0.633156 4.428851 63 67 67
0.152279 0.569694 4.805189 190 175 145
0.152279 0.569694 4.805189 190 175 145
0.164694 0.523976 5.184768 167 155 133
0.196027 0.458436 6.095556 43 35 22
0.144069 0.644664 4.414491 65 53 69
0.169393 0.565565 5.140154 85 76 66
0.172019 0.525581 5.192816 44 37 24
0.146496 0.621858 4.421540 149 144 99
0.146496 0.621858 4.421540 149 144 99
0.146496 0.621858 4.421540 149 144 99
0.176668 0.529026 5.179515 142 135 119
0.151603 0.607675 4.430943 92 105 106
0.192803 0.494991 5.602890 31 25 15
0.153676 0.630891 4.416258 62 73 69
0.225337 0.446232 6.260666 35 30 18
0.216715 0.464517 5.897501 32 27 11
0.222887 0.470976 5.888399 29 23 8
0.240488 0.442774 6.282818 25 23 14
0.170229 0.628879 4.405979 33 45 59
0.202881 0.515590 5.241723 91 84 65
0.206007 0.556287 5.202765 121 112 101
0.206007 0.556287 5.202765 121 112 101
0.208192 0.530192 5.230959 106 98 79
0.239125 0.460286 5.932522 34 30 18
0.269362 0.414507 6.407088 10 8 8
0.277501 0.420054 6.414679 10 8 3
0.228643 0.521600 5.272862 17 17 9
0.230801 0.515187 5.269728 97 89 80
0.205387 0.544236 4.505984 22 28 38
0.207497 0.528610 4.503105 152 157 156
0.207215 0.533083 4.496305 26 34 42
0.200697 0.672210 4.342216 53 71 95
0.245171 0.537588 5.298244 107 95 77
0.246219 0.511734 5.315162 117 103 85
0.251292 0.548439 5.307946 31 25 13
0.251292 0.548439 5.307946 31 25 13
0.214190 0.537294 4.479091 30 35 42
0.214190 0.537294 4.479091 30 35 42
0.266656 0.483930 5.555296 43 37 21
0.216144 0.527925 4.473807 31 41 40
0.216532 0.550747 4.467142 46 54 64
0.245785 0.544314 5.065973 75 86 74
0.212719 0.637980 4.347926 44 55 61
0.221565 0.527747 4.476593 74 89 93
0.221565 0.527747 4.476593 74 89 93
0.265637 0.525167 5.343941 124 115 94
0.217312 0.644499 4.343173 58 68 73
0.225989 0.518651 4.473734 90 100 108
0.225989 0.518651 4.473734 90 100 108
0.255329 0.547212 5.030062 180 173 109
0.229709 0.511947 4.477695 88 97 108
0.276481 0.529659 5.362721 115 103 82
0.283787 0.493475 5.416300 40 38 26
0.232191 0.670358 4.300220 8 20 38
0.275750 0.542058 5.052952 48 53 58
0.302808 0.502481 5.429414 36 33 24
0.353863 0.423821 6.321296 5 4 0
0.347266 0.440824 6.058621 22 19 7
0.331343 0.493981 5.486996 30 22 10
0.331343 0.493981 5.486996 30 22 10
0.332053 0.514455 5.467321 113 105 85
0.364039 0.452091 5.982688 84 78 59
0.336133 0.496579 5.491319 127 120 102
0.341753 0.497362 5.503704 21 18 10
0.343009 0.491833 5.511755 127 114 99
0.341345 0.516311 5.481129 24 22 27
0.327785 0.521108 5.256463 63 47 53
0.276401 0.555603 4.360432 64 78 86
0.281124 0.562455 4.350923 11 16 21
0.362283 0.480088 5.555859 120 109 84
0.284374 0.552408 4.355291 46 56 56
0.361814 0.506966 5.530284 109 103 96
0.364741 0.472111 5.568894 42 35 20
0.364741 0.472111 5.568894 42 35 20
0.352264 0.514451 5.330234 134 83 88
0.371720 0.468446 5.613092 110 99 69
0.292854 0.534634 4.393404 94 110 120
0.293318 0.549812 4.341849 156 163 162
0.292696 0.563493 4.331248 24 33 41
0.295056 0.536371 4.361351 54 64 66
0.293799 0.562909 4.341486 35 51 59
0.436657 0.316928 6.361146 86 78 64
0.298503 0.560596 4.330385 145 154 155
0.423088 0.430979 6.093458 28 24 10
0.310558 0.508957 4.457248 37 39 44
0.298916 0.618061 4.288644 49 70 97
0.305594 0.538984 4.373802 176 181 180
0.397168 0.462740 5.659984 83 79 53
0.304502 0.565836 4.313926 52 68 70
0.308701 0.522336 4.359945 28 32 36
0.439095 0.401853 6.165094 45 44 40
0.404203 0.464850 5.643143 35 27 10
0.406967 0.462613 5.667626 127 112 96
0.389381 0.499709 5.421332 115 82 79
0.314439 0.535996 4.361940 61 80 85
0.407803 0.482377 5.629206 22 20 10
0.411252 0.472662 5.655922 93 90 74
0.319268 0.532331 4.367738 45 61 60
0.415422 0.467553 5.662730 24 22 9
0.415422 0.467553 5.662730 24 22 9
0.416344 0.482987 5.647231 79 76 65
0.416344 0.482987 5.647231 79 76 65
0.450872 0.431749 6.059340 29 26 21
0.418823 0.487505 5.618252 31 34 41
0.403979 0.523249 5.213796 53 51 53
0.476168 0.394476 6.117373 38 37 32
0.351303 0.518414 4.486158 87 101 108
0.424989 0.648686 5.408710 36 43 48
0.331687 0.633088 4.199682 86 91 80
0.352311 0.528403 4.455923 149 153 155
0.352311 0.528403 4.455923 149 153 155
0.488130 0.422133 6.148936 9 9 6
0.333567 0.644448 4.199773 143 139 108
0.430752 0.506400 5.408928 41 45 53
0.417070 0.524385 5.209928 39 48 59
0.336264 0.661266 4.198211 40 41 43
0.464684 0.446110 5.794977 31 25 12
0.356480 0.529989 4.435862 65 83 88
0.345920 0.558711 4.275867 167 170 168
0.494838 0.406297 6.113384 72 68 65
0.340914 0.636570 4.190725 129 105 95
0.347903 0.559393 4.261540 59 84 89
0.444824 0.498687 5.425421 47 50 55
0.319018 1.081527 3.890811 137 128 111
0.474303 0.468035 5.752768 115 98 83
0.354542 0.551585 4.296679 177 179 177
0.430393 0.525131 5.210717 124 95 92
0.352445 0.552692 4.258471 84 102 110
0.517160 0.333797 6.234165 85 79 61
0.474943 0.479803 5.721980 42 36 35
0.484362 0.446894 5.808671 22 15 6
0.359068 0.546225 4.297163 176 177 175
0.349616 0.667099 4.172532 163 88 91
0.485277 0.461675 5.777554 22 19 12
0.357114 0.567335 4.247224 24 32 36
0.351911 0.645879 4.183519 25 36 35
0.490791 0.454162 5.813500 26 26 19
0.474772 0.475693 5.608554 116 68 66
0.361960 0.559034 4.248135 24 40 45
0.368561 0.547552 4.284765 176 177 176
0.367200 0.561408 4.238379 69 88 89
0.369467 0.551471 4.245155 52 65 71
0.371821 0.554352 4.239558 88 105 113
0.371821 0.554352 4.239558 88 105 113
0.547563 0.357694 6.225798 90 83 71
0.364605 1.058025 4.098283 102 95 77
0.379981 0.548114 4.260448 92 110 119
0.379937 0.547639 4.257878 92 110 119
0.529759 0.432781 5.923694 134 117 98
0.524813 0.468579 5.870019 39 33 28
0.574657 0.351847 6.263610 12 10 11
0.546677 0.424395 5.944019 16 13 5
0.479044 0.528655 5.203518 59 54 47
0.581988 0.368575 6.230342 10 8 9
0.492591 0.519982 5.269334 51 44 55
0.371680 1.070899 3.969871 101 93 77
0.557991 0.445694 5.929691 23 20 15
0.557991 0.445694 5.929691 23 20 15
0.513849 0.499608 5.430218 129 95 90
0.563616 0.448840 5.937499 89 81 63
0.364851 1.086164 3.825490 151 141 130
0.364851 1.086164 3.825490 151 141 130
0.394360 0.700284 4.088919 4 1 6
0.395421 0.695795 4.092774 63 76 82
0.614883 0.308016 6.346779 80 72 72
0.402026 1.049352 4.136275 133 124 114
0.399273 1.055187 4.096237 147 141 123
0.405841 1.047715 4.155122 135 128 118
0.388742 1.070535 3.960878 148 141 125
0.603587 0.404083 6.066954 78 72 52
0.546422 0.500818 5.471205 119 76 71
0.546422 0.500818 5.471205 119 76 71
0.420228 0.551744 4.198211 66 71 75
0.608511 0.418701 6.051757 30 24 11
0.618928 0.391246 6.154093 83 77 69
0.518847 0.530465 5.140840 107 87 82
0.547535 0.502146 5.401263 47 37 48
0.521585 0.532951 5.122005 53 45 47
0.397963 1.077084 3.895066 150 142 131
0.625138 0.405935 6.086243 109 99 92
0.552994 0.504825 5.372337 100 82 85
0.608481 0.446633 5.873699 37 33 27
0.434953 0.556065 4.151188 35 43 50
0.434953 0.556065 4.151188 35 43 50
0.644325 0.387431 6.146463 44 40 31
0.436285 0.558964 4.143729 78 98 107
0.528837 0.543895 5.003090 134 120 99
0.471316 0.522227 4.453120 22 28 34
0.475602 0.517009 4.484850 161 162 159
0.441043 0.553714 4.150436 98 114 127
0.656706 0.393754 6.165803 106 97 83
0.440560 0.561400 4.127750 22 32 37
0.662017 0.380721 6.174575 105 97 87
0.662657 0.379473 6.178468 103 95 85
0.440104 1.055931 4.071423 151 146 135
0.417522 1.081753 3.829905 99 87 69
0.677517 0.392945 6.165401 26 22 10
0.454401 0.550705 4.127063 174 176 175
0.454150 0.560456 4.114538 29 42 60
0.556703 0.541311 5.030220 46 53 62
0.462098 0.549721 4.131008 101 118 116
0.458841 0.626561 4.086308 139 97 113
0.458841 0.626561 4.086308 139 97 113
0.458841 0.626561 4.086308 139 97 113
0.660489 0.438740 5.873691 42 37 36
0.460897 0.625406 4.094089 62 43 61
0.462768 0.559290 4.107047 38 50 53
0.471621 1.042571 4.166659 29 23 12
0.466953 0.624286 4.091340 120 83 93
0.634688 0.484033 5.518469 44 38 42
0.473216 0.560940 4.089671 90 101 111
0.457968 1.065476 3.954427 100 93 75
0.713752 0.383137 6.132683 15 10 7
0.643025 0.485711 5.513785 39 38 45
0.585572 0.540293 4.896944 137 93 77
0.481675 0.692112 3.998407 85 104 113
0.491029 0.554418 4.063046 44 58 58
0.593517 0.536143 4.909025 35 34 42
0.487201 0.691212 4.017438 43 59 82
0.481670 1.062510 3.963164 162 155 140
0.716268 0.391913 5.877998 134 127 113
0.463663 1.085003 3.784104 146 139 122
0.681323 0.487275 5.538740 38 31 26
0.499232 0.553508 4.052576 47 63 69
0.602065 0.547010 4.864592 57 51 58
0.501451 1.054526 4.032876 139 134 116
0.724590 0.435507 5.813929 83 57 59
0.727328 0.439767 5.823287 86 62 61
0.727328 0.439767 5.823287 86 62 61
0.672607 0.505012 5.381415 48 43 44
0.508781 0.553329 4.043723 34 48 48
0.481201 1.079115 3.822184 83 74 56
0.513366 0.548370 4.055110 62 82 91
0.517013 0.594112 4.062558 31 34 38
0.483077 1.081723 3.800252 131 124 106
0.556308 0.531731 4.367256 8 18 18
0.521100 0.545734 4.084844 100 119 126
0.639723 0.544831 4.955615 62 56 69
0.523884 1.053260 4.043349 136 131 115
0.630351 0.554102 4.827538 72 65 72
0.526252 0.555010 4.025624 17 25 31
0.641184 0.553498 4.890893 120 102 82
0.535420 0.543801 4.076154 88 111 113
0.526738 1.055084 4.009025 92 84 69
0.530808 0.551472 4.039384 35 44 49
0.538953 0.547136 4.061722 54 65 70
0.766111 0.426685 5.770548 20 21 21
0.766241 0.439498 5.763710 141 123 99
0.519038 1.067646 3.902843 146 138 124
0.667253 0.540444 5.006859 57 57 58
0.520641 1.069900 3.896005 79 72 54
0.518137 1.073417 3.859084 137 130 114
0.657618 0.552344 4.871054 143 132 111
0.523834 1.071168 3.869301 156 149 133
0.534669 1.062801 3.948343 97 90 70
0.782928 0.443101 5.768513 34 29 30
0.782928 0.443101 5.768513 34 29 30
0.684773 0.538174 5.041560 52 52 49
0.783163 0.425205 5.751105 40 19 19
0.540904 1.059066 3.962020 84 77 61
0.549979 1.053355 4.028026 126 118 107
0.576970 0.525543 4.201872 92 108 109
0.543182 0.662730 3.955329 15 22 30
0.788732 0.424127 5.733881 30 16 11
0.795518 0.408680 5.765646 43 37 34
0.519546 1.084581 3.766517 150 142 128
0.793942 0.459343 5.746754 10 13 19
0.523890 1.082465 3.776777 145 138 122
0.549097 0.642155 3.954791 24 36 55
0.571052 0.537362 4.102782 25 29 30
0.571052 0.537362 4.102782 25 29 30
0.577374 0.528609 4.147123 24 28 34
0.579341 0.518643 4.164238 169 171 168
0.551832 0.648131 3.964245 89 103 103
0.551997 0.656998 3.959153 22 31 24
0.806487 0.407784 5.773235 39 32 23
0.550928 0.690138 3.929375 173 159 87
0.808397 0.413131 5.745580 85 55 40
0.810908 0.406953 5.760534 133 118 87
0.810908 0.406953 5.760534 133 118 87
0.812158 0.403030 5.756558 139 123 88
0.707843 0.537363 5.013024 151 146 126
0.532092 1.084469 3.761197 137 130 114
0.811254 0.405731 5.721883 41 33 24
0.579972 1.044302 4.087994 81 73 59
0.597103 0.523033 4.190891 52 67 70
0.564221 0.661324 3.940398 163 161 105
0.822041 0.468033 5.730699 20 21 29
0.563499 0.666774 3.925014 80 97 78
0.602840 0.575158 4.191269 27 31 33
0.728905 0.539635 5.068362 130 131 117
0.566657 0.677449 3.918057 87 61 74
0.797348 0.510075 5.435661 113 88 83
0.805473 0.514049 5.375749 50 37 37
0.802348 0.526878 5.218841 112 81 82
0.598099 0.696088 3.887465 3 3 4
0.603684 0.688939 3.885958 51 63 85
0.868814 0.490467 5.591830 117 101 97
0.868814 0.490467 5.591830 117 101 97
0.600984 1.069452 3.867821 92 84 63
0.678944 0.591998 4.349662 79 91 88
0.727813 0.567840 4.656586 45 59 59
0.826540 0.524860 5.274143 47 45 51
0.849674 0.510831 5.414926 50 40 46
0.892531 0.472877 5.675446 15 10 10
0.903308 0.380768 5.736847 49 35 35
0.903308 0.380768 5.736847 49 35 35
0.602365 1.072984 3.816183 101 94 75
0.752513 0.559207 4.748063 57 51 56
0.755821 0.551559 4.761364 121 86 84
0.668744 0.596462 4.214945 42 43 42
0.727038 0.572450 4.581895 44 57 60
0.745881 0.561439 4.694542 170 149 125
0.737957 0.568912 4.614776 57 63 66
0.907414 0.464697 5.641022 67 68 58
0.740116 0.576095 4.581512 46 53 62
0.775351 0.551948 4.790719 125 89 93
0.914622 0.472889 5.639847 10 8 8
0.774888 0.555749 4.763425 136 95 100
0.650446 1.054719 3.973752 81 75 55
0.637424 1.066449 3.892002 98 91 73
0.928638 0.421875 5.669572 98 68 75
0.782164 0.558863 4.746711 130 92 91
0.933408 0.459429 5.642856 93 62 59
0.715048 0.592140 4.314283 41 49 64
0.632468 1.075685 3.787468 146 139 126
0.867496 0.526925 5.174629 101 78 81
0.708791 0.599488 4.207460 146 88 100
0.708791 0.599488 4.207460 146 88 100
0.948725 0.473548 5.599400 12 11 7
0.659032 1.065255 3.875484 135 128 110
0.657723 1.066268 3.866843 76 69 50
0.962515 0.478490 5.644195 13 11 10
0.962515 0.478490 5.644195 13 11 10
0.961888 0.426085 5.628854 95 64 73
0.961888 0.426085 5.628854 95 64 73
0.753954 0.577114 4.407579 186 178 126
0.750951 0.583641 4.350424 49 61 67
0.976977 0.480368 5.625132 9 1 1
0.693225 1.051989 3.986624 20 13 7
0.686650 0.619271 3.944273 159 110 118
0.812179 0.560341 4.659921 62 69 81
0.685743 1.058097 3.922277 158 151 134
0.687461 1.056342 3.929966 81 73 54
0.740711 0.590748 4.233311 181 174 135
0.691835 0.617539 3.953459 49 56 72
0.782066 0.571267 4.469151 196 178 148
0.766610 0.585926 4.348368 154 152 137
0.766610 0.585926 4.348368 154 152 137
0.987035 0.478606 5.590288 21 19 24
0.671951 1.071892 3.803343 139 132 113
0.665119 1.077025 3.762666 159 152 136
0.918349 0.521733 5.189718 46 41 44
0.664002 1.078712 3.750100 87 81 60
0.664002 1.078712 3.750100 87 81 60
0.830330 0.555649 4.685215 89 92 76
0.996935 0.468241 5.609756 141 125 102
0.680869 0.689155 3.825333 64 79 82
0.820396 0.562786 4.598228 58 62 71
0.781621 0.581341 4.379190 50 60 68
0.684264 1.069966 3.820900 148 144 125
1.000143 0.439899 5.565325 38 38 42
1.000143 0.439899 5.565325 38 38 42
0.710749 0.614447 3.954054 160 122 105
0.776956 0.585188 4.319715 45 63 67
1.003610 0.477236 5.568962 26 25 22
1.003610 0.477236 5.568962 26 25 22
0.805525 0.567750 4.466105 52 39 46
0.692774 1.069044 3.830612 135 129 112
1.012244 0.421757 5.597244 88 49 33
1.012244 0.421757 5.597244 88 49 33
0.684015 1.072572 3.782791 145 136 119
0.692733 0.694581 3.828042 70 81 85
0.692733 0.694581 3.828042 70 81 85
0.709449 0.619997 3.920765 65 64 72
0.709449 0.619997 3.920765 65 64 72
1.010888 0.446271 5.577853 34 34 37
1.019573 0.407233 5.612198 125 122 96
0.768778 0.590016 4.228992 74 63 69
1.014330 0.453073 5.572316 34 33 37
0.713318 0.622643 3.919503 149 107 109
0.881465 0.547138 4.837453 48 43 50
0.881465 0.547138 4.837453 48 43 50
0.926804 0.524283 5.087662 92 72 74
0.793860 0.584704 4.355523 56 60 64
0.782144 0.589666 4.285255 109 76 58
0.772120 0.594215 4.227741 51 53 69
0.885411 0.544141 4.845636 98 81 84
0.712292 1.060625 3.893669 125 118 102
1.043410 0.383431 5.688808 91 91 78
0.694600 1.073240 3.785653 146 139 121
0.778431 0.591834 4.231629 165 96 89
0.745306 0.607399 4.051992 188 181 140
0.771365 0.595798 4.188767 156 105 97
0.937898 0.521644 5.087573 103 75 77
1.046066 0.379301 5.664242 64 66 56
0.792103 0.587727 4.271692 75 46 54
0.792103 0.587727 4.271692 75 46 54
0.853232 0.558658 4.599626 59 57 63
0.868072 0.554230 4.674845 71 71 59
0.710056 1.074601 3.777651 142 135 117
0.822577 0.592800 4.352835 149 85 80
0.795105 0.591986 4.203919 165 94 88
1.050855 0.429984 5.538147 103 63 65
0.814786 0.579792 4.295203 155 95 85
0.790085 0.599155 4.149462 61 57 46
1.031177 0.496941 5.414933 44 40 39
0.733330 1.062909 3.850455 142 135 117
0.785187 0.600391 4.115747 59 51 57
0.849979 0.569031 4.440309 98 99 95
1.057115 0.493230 5.513762 35 34 31
1.057115 0.493230 5.513762 35 34 31
0.866633 0.554913 4.522264 42 45 49
0.923145 0.546681 4.811328 153 150 135
0.795829 0.599661 4.136549 69 62 70
0.909921 0.550647 4.713756 123 84 83
1.063872 0.453437 5.507807 94 55 56
1.063872 0.453437 5.507807 94 55 56
0.866980 0.559570 4.475085 49 51 67
0.811602 0.592633 4.182244 160 90 85
0.811602 0.592633 4.182244 160 90 85
0.805686 0.598131 4.143650 162 105 93
0.911875 0.552028 4.685828 48 41 42
0.731396 1.075614 3.752716 145 136 119
0.731396 1.075614 3.752716 145 136 119
0.731396 1.075614 3.752716 145 136 119
0.810812 0.596575 4.158089 80 49 52
0.964798 0.531486 4.942094 141 138 126
0.978895 0.530121 4.964410 53 53 56
0.862329 0.578749 4.360096 61 70 79
0.750740 1.070337 3.788569 146 139 119
0.750740 1.070337 3.788569 146 139 119
0.842410 0.587749 4.237916 69 61 70
0.807987 0.610884 4.061400 47 53 61
0.828188 0.595287 4.163190 166 98 94
0.841325 0.590359 4.222749 59 59 67
1.098692 0.451344 5.497466 93 59 49
1.098692 0.451344 5.497466 93 59 49
1.098692 0.451344 5.497466 93 59 49
0.808726 0.620518 4.043505 120 98 101
0.836970 0.598420 4.168861 79 66 75
0.826237 0.604950 4.111539 208 193 170
0.847126 0.591835 4.205199 56 41 54
0.835601 0.601274 4.146285 154 95 90
0.905255 0.558529 4.490598 71 64 71
0.905255 0.558529 4.490598 71 64 71
0.896058 0.560361 4.429513 61 49 58
0.845163 0.603342 4.150466 51 46 60
0.865815 0.586665 4.249231 155 85 73
0.865815 0.586665 4.249231 155 85 73
0.830737 0.633149 4.074619 118 81 91
0.777835 1.066733 3.807287 136 129 114
0.777835 1.066733 3.807287 136 129 114
0.777835 1.066733 3.807287 136 129 114
0.851445 0.604811 4.157575 54 52 57
0.861139 0.595875 4.198496 145 80 70
0.919737 0.554473 4.481958 164 160 92
0.869718 0.592888 4.232335 186 178 133
0.858108 0.615466 4.159517 172 158 124
0.858108 0.615466 4.159517 172 158 124
0.923945 0.564328 4.476547 62 60 66
0.780744 1.070499 3.775967 152 145 129
0.891255 0.586863 4.299565 49 59 66
0.935482 0.554874 4.513290 168 166 111
0.926480 0.567778 4.451239 129 96 90
0.886013 0.593796 4.255326 49 61 65
0.864807 0.635749 4.146525 43 48 53
0.956072 0.550250 4.582413 168 169 129
1.200883 0.363099 5.749968 108 111 110
0.901183 0.584149 4.314702 44 53 55
0.899991 0.595449 4.304956 59 70 74
0.955755 0.550095 4.562510 52 59 54
0.910328 0.583654 4.342485 153 95 96
0.953019 0.552808 4.544940 59 69 70
0.884964 0.616373 4.217213 46 56 62
1.004129 0.534557 4.767547 104 88 89
0.871726 0.665724 4.136155 74 73 78
0.901660 0.602374 4.269757 174 168 134
1.003054 0.538177 4.731111 111 87 95
0.816907 1.060622 3.847560 138 131 114
0.971121 0.551020 4.574887 49 57 62
0.885417 0.663463 4.171361 122 70 76
0.895117 0.632982 4.213203 46 56 58
0.909276 0.620835 4.266438 46 56 60
1.153801 0.478136 5.406023 3 0 2
0.894791 0.658981 4.189970 152 140 95
0.924230 0.605880 4.310575 172 160 114
0.808014 1.070335 3.762015 140 131 114
1.158839 0.477296 5.389760 9 3 2
1.162804 0.456225 5.404475 54 57 50
0.917009 0.647668 4.251118 154 143 109
0.917009 0.647668 4.251118 154 143 109
0.916901 0.645990 4.248143 154 143 109
1.106031 0.496991 5.111228 37 41 44
1.106031 0.496991 5.111228 37 41 44
0.848046 1.050678 3.916631 70 63 47
0.933077 0.626400 4.307817 50 44 48
0.930661 0.638375 4.286679 123 73 74
0.950767 0.613800 4.361453 148 108 100
1.014955 0.547354 4.636740 122 89 79
0.987295 0.596267 4.456230 85 88 84
0.846253 1.062665 3.817593 123 116 98
1.021663 0.563064 4.605977 52 44 42
1.009429 0.575804 4.543083 34 29 31
1.001719 0.588230 4.506405 103 81 77
1.084069 0.518948 4.864581 34 30 27
1.008373 0.587220 4.521397 39 40 52
1.005026 0.599802 4.492394 93 82 86
1.128851 0.517093 4.955147 50 38 37
1.260247 0.450452 5.526719 104 91 82
1.229809 0.471663 5.379490 106 97 84
1.142610 0.521808 4.959713 110 83 68
1.136889 0.532183 4.904115 151 135 108
1.223583 0.509808 5.119090 38 23 21
1.223583 0.509808 5.119090 38 23 21
1.285548 0.469071 5.377201 122 113 91
