ply
format ascii 1.0
element vertex 793
property float x
property float y
property float z
property uchar red
property uchar green
property uchar blue
end_header
-1.578807 -1.642812 4.327656 203 173 171
-1.521910 -1.673670 4.304940 255 255 255
-1.459692 -1.397050 4.467942 125 54 76
-1.549625 -0.932221 4.752705 124 109 113
-1.463368 -1.368795 4.515157 40 11 29
-1.582599 -1.146265 4.885020 112 114 125
-1.582599 -1.146265 4.885020 112 114 125
-1.580914 -1.159266 4.892009 15 13 27
-1.589080 -1.090036 4.942849 20 18 29
-1.477079 -1.287942 4.600832 34 12 27
-1.475701 -1.249384 4.619550 125 96 92
-1.451611 -1.353865 4.565012 117 51 69
-1.555962 -1.144417 4.905603 70 70 83
-1.564689 -1.062049 4.944651 134 122 125
-1.538149 -1.189380 4.860770 81 72 83
-1.453744 -1.301676 4.604256 33 16 31
-1.546675 -0.847665 4.917974 46 19 28
-1.540320 -1.125755 4.899432 16 16 25
-1.519907 -1.193551 4.856822 33 21 31
-1.525579 -1.133617 4.900584 137 125 134
-1.442200 -1.262114 4.634288 26 12 27
-1.434489 -1.311287 4.646226 43 17 29
-1.518061 -1.087828 4.921230 140 137 140
-1.532346 -0.914837 4.969583 151 144 151
-1.524928 -0.947914 4.953485 122 121 127
-1.427808 -1.275334 4.637244 109 54 75
-1.419283 -1.355841 4.637750 117 64 81
-1.412126 -1.282993 4.650567 37 13 27
-1.502226 -1.064243 4.949388 138 145 163
-1.485240 -1.137844 4.899920 64 33 37
-1.507446 -0.917522 4.975125 119 119 129
-1.482716 -1.175187 4.894719 138 123 124
-1.405316 -1.363193 4.639932 41 4 15
-1.405316 -1.363193 4.639932 41 4 15
-1.506223 -0.988309 4.981596 142 141 146
-1.498126 -1.098853 4.955296 47 49 65
-1.496371 -1.085850 4.951290 112 115 125
-1.498708 -0.875246 4.961689 141 140 143
-1.398846 -1.349347 4.643638 132 69 86
-1.402683 -1.406146 4.673337 145 104 122
-1.486870 -0.900413 4.964090 137 137 143
-1.485221 -0.815667 4.974057 110 104 107
-1.481872 -0.869650 4.969238 51 58 79
-1.475353 -0.673511 4.964276 64 58 48
-1.480860 -1.054576 4.981982 28 38 58
-1.473058 -0.951874 4.962091 138 137 139
-1.453494 -1.168050 4.899174 136 123 118
-1.453494 -1.168050 4.899174 136 123 118
-1.465151 -1.080872 4.942016 119 120 127
-1.465151 -1.080872 4.942016 119 120 127
-1.471114 -0.880692 4.968708 140 139 142
-1.436412 -1.288055 4.858868 37 26 32
-1.378747 -1.396351 4.667770 38 19 31
-1.465672 -0.952994 4.969806 149 149 153
-1.463614 -0.857050 4.966859 144 143 149
-1.469629 -0.768007 4.997066 48 42 53
-1.457705 -0.903096 4.958742 143 142 145
-1.386685 -1.254699 4.720228 23 8 19
-1.377476 -1.263728 4.700498 118 61 76
-1.457684 -0.802244 4.979492 31 33 44
-1.454042 -0.834787 4.970658 47 46 59
-1.447349 -0.921389 4.963954 159 157 163
-1.454625 -0.775436 4.992132 139 138 142
-1.362794 -1.438952 4.675775 118 73 88
-1.443003 -0.852494 4.972999 146 146 149
-1.358947 -1.404912 4.682569 117 70 88
-1.435437 -0.909857 4.960981 56 63 73
-1.439357 -0.785208 4.995741 48 59 79
-1.436921 -0.767884 4.995587 140 141 142
-1.429890 -0.782987 4.991456 140 140 146
-1.424229 -0.857372 4.974367 30 35 53
-1.428136 -0.817734 4.989398 76 82 93
-1.416490 -0.906918 4.954389 170 170 171
-1.380766 -1.611721 4.836976 120 110 120
-1.360227 -1.293228 4.767526 36 15 27
-1.416300 -1.238960 4.966388 20 9 16
-1.419112 -0.823624 4.985905 64 62 73
-1.422151 -1.752260 4.994442 29 30 48
-1.422151 -1.752260 4.994442 29 30 48
-1.337203 -1.457094 4.704874 144 102 108
-1.336857 -1.404945 4.709769 82 44 61
-1.414470 -1.766091 4.993155 77 75 96
-1.331970 -1.418390 4.708521 63 29 46
-1.406966 -0.871450 4.975650 66 77 96
-1.406966 -0.871450 4.975650 66 77 96
-1.404350 -1.646657 4.965193 51 51 69
-1.348784 -1.272023 4.770539 24 14 24
-1.413379 -1.731535 5.001635 30 29 49
-1.347888 -1.386694 4.770971 28 5 18
-1.347888 -1.386694 4.770971 28 5 18
-1.408027 -0.805695 4.988416 162 163 165
-1.408199 -1.746029 5.000625 107 107 117
-1.399640 -1.660263 4.975550 117 111 119
-1.407049 -0.756634 5.007465 52 67 86
-1.407049 -0.756634 5.007465 52 67 86
-1.403295 -1.762751 5.004507 28 30 58
-1.339990 -1.346651 4.782243 33 16 28
-1.339990 -1.346651 4.782243 33 16 28
-1.400307 -0.788496 5.003319 56 71 88
-1.391238 -1.670895 4.971272 35 32 56
-1.334929 -1.305218 4.771343 135 109 116
-1.395616 -0.901497 4.990324 65 79 104
-1.399698 -0.950499 5.021500 69 80 94
-1.390604 -1.772738 4.993299 81 81 101
-1.382661 -1.563932 4.970398 35 27 52
-1.389451 -1.713726 5.019041 121 117 131
-1.320411 -1.345434 4.776987 104 64 72
-1.374141 -1.551576 4.973988 96 96 108
-1.417679 -1.031667 5.136693 50 51 62
-1.376032 -1.596223 4.992249 33 35 56
-1.378967 -0.717255 5.011259 28 15 21
-1.376742 -1.767362 5.002218 31 35 57
-1.378968 -0.807371 5.018157 28 32 43
-1.370314 -1.609616 4.993082 109 110 121
-1.366012 -1.539464 4.977530 27 22 36
-1.366012 -1.539464 4.977530 27 22 36
-1.374285 -1.750891 5.019063 17 21 39
-1.387009 -1.179768 5.066684 159 146 147
-1.375681 -1.709047 5.028217 28 29 48
-1.374255 -0.924937 5.032051 58 74 99
-1.374255 -0.924937 5.032051 58 74 99
-1.367578 -0.769695 5.016184 64 78 100
-1.369909 -1.734047 5.028879 24 26 47
-1.360872 -0.757968 5.023095 157 159 159
-1.331369 -0.947841 4.915859 115 116 119
-1.365594 -0.895204 5.048404 164 162 164
-1.352118 -1.615499 5.002588 115 113 128
-1.346454 -1.537317 4.982021 33 34 53
-1.388780 -1.008473 5.151023 113 111 114
-1.356122 -0.931286 5.080099 61 70 88
-1.356122 -0.931286 5.080099 61 70 88
-1.299783 -1.309524 4.876611 145 141 146
-1.347384 -1.717560 5.057086 109 109 119
-1.347384 -1.717560 5.057086 109 109 119
-1.328206 -1.524112 4.986658 18 23 39
-1.311832 -1.352619 4.931738 25 23 40
-1.311832 -1.352619 4.931738 25 23 40
-1.311832 -1.352619 4.931738 25 23 40
-1.335881 -0.781296 5.026731 38 40 49
-1.336368 -1.596021 5.031090 28 30 51
-1.349623 -0.935894 5.101159 149 148 153
-1.344740 -0.931838 5.090925 148 150 153
-1.328613 -1.758823 5.032908 108 107 121
-1.320046 -1.527705 5.002019 133 134 148
-1.333925 -1.714484 5.060972 19 22 39
-1.296376 -1.364174 4.925950 119 119 126
-1.316559 -1.510946 5.002794 34 31 48
-1.284222 -1.296194 4.887331 130 125 131
-1.315093 -1.494438 5.004948 151 144 157
-1.294231 -1.387029 4.933771 95 92 104
-1.337709 -0.914582 5.104096 65 69 83
-1.322256 -1.746670 5.044289 33 35 56
-1.365349 -1.028435 5.211230 105 97 103
-1.286870 -1.355868 4.931481 27 27 48
-1.286870 -1.355868 4.931481 27 27 48
-1.314350 -1.569502 5.038155 139 136 145
-1.316920 -1.731900 5.050419 117 117 129
-1.306167 -1.512863 5.014126 142 137 144
-1.285028 -1.378098 4.935512 36 39 58
-1.285028 -1.378098 4.935512 36 39 58
-1.311105 -1.752424 5.045084 117 115 126
-1.269220 -1.296925 4.897151 34 33 48
-1.269220 -1.296925 4.897151 34 33 48
-1.310553 -1.719193 5.061998 32 36 58
-1.326347 -0.891284 5.129152 61 68 82
-1.326347 -0.891284 5.129152 61 68 82
-1.308295 -1.612807 5.057944 25 27 37
-1.305744 -1.739963 5.056230 30 30 40
-1.273421 -1.366567 4.931915 138 137 146
-1.273421 -1.366567 4.931915 138 137 146
-1.311597 -1.673230 5.095037 20 23 39
-1.317851 -0.882501 5.140139 163 162 166
-1.291998 -1.727978 5.038711 103 101 115
-1.265695 -1.335547 4.937790 34 35 47
-1.323209 -0.856587 5.170214 53 72 96
-1.262364 -1.356797 4.934985 29 30 49
-1.262364 -1.356797 4.934985 29 30 49
-1.253372 -1.296669 4.902098 157 155 164
-1.299592 -1.693347 5.084598 19 24 45
-1.286356 -0.773560 5.036524 146 147 153
-1.252863 -1.283126 4.905090 21 18 29
-1.294249 -1.713307 5.074438 34 37 52
-1.294249 -1.713307 5.074438 34 37 52
-1.294400 -1.679504 5.093341 130 129 136
-1.253652 -1.323752 4.938432 132 130 141
-1.252224 -1.345809 4.938732 156 153 162
-1.295202 -1.645227 5.110510 14 16 30
-1.251135 -1.364269 4.937062 146 145 155
-1.309358 -0.857379 5.176129 155 154 159
-1.285401 -1.663735 5.097187 36 38 51
-1.283186 -1.686711 5.097960 27 26 46
-1.283186 -1.686711 5.097960 27 26 46
-1.241964 -1.335304 4.944902 28 31 58
-1.283591 -1.652864 5.115329 128 122 135
-1.288715 -1.141179 5.137691 95 57 66
-1.300224 -0.878645 5.191924 164 159 163
-1.229180 -1.323272 4.944032 147 144 156
-1.229180 -1.323272 4.944032 147 144 156
-1.229180 -1.323272 4.944032 147 144 156
-1.336107 -1.009313 5.383552 155 147 145
-1.287938 -0.763627 5.189593 115 115 125
-1.292341 -0.855881 5.209018 55 67 87
-1.269830 -1.682860 5.118571 34 35 61
-1.272180 -1.626844 5.141582 137 138 146
-1.290006 -1.207793 5.219400 115 96 98
-1.314016 -1.039938 5.320309 138 128 124
-1.291340 -1.557975 5.229385 31 29 41
-1.264822 -1.670073 5.130309 128 128 141
-1.264822 -1.670073 5.130309 128 128 141
-1.267050 -1.613579 5.156353 22 21 37
-1.267050 -1.613579 5.156353 22 21 37
-1.211352 -1.294832 4.932831 142 144 149
-1.260974 -1.657673 5.139556 25 27 42
-1.239233 -1.370051 5.051715 96 100 113
-1.301326 -1.018968 5.337837 153 138 138
-1.205514 -1.321855 4.945689 155 155 165
-1.263227 -1.569278 5.192352 27 26 40
-1.263227 -1.569278 5.192352 27 26 40
-1.270810 -1.544018 5.227854 89 89 100
-1.198684 -1.297317 4.942566 27 32 51
-1.250889 -1.655088 5.163661 38 41 59
-1.250889 -1.655088 5.163661 38 41 59
-1.274945 -0.839714 5.277966 42 48 63
-1.250546 -1.631911 5.186301 27 31 48
-1.250546 -1.631911 5.186301 27 31 48
-1.250546 -1.631911 5.186301 27 31 48
-1.253083 -1.620504 5.200316 114 113 123
-1.187128 -1.300774 4.956042 158 161 167
-1.239119 -1.651268 5.182606 24 26 47
-1.283600 -1.044783 5.375910 157 148 151
-1.283600 -1.044783 5.375910 157 148 151
-1.286609 -0.976680 5.396687 61 66 77
-1.238191 -1.639354 5.195557 128 127 134
-1.238191 -1.639354 5.195557 128 127 134
-1.246193 -1.604319 5.232522 40 38 60
-1.246193 -1.604319 5.232522 40 38 60
-1.275088 -1.015724 5.358474 140 128 130
-1.280901 -0.988668 5.408549 144 144 150
-1.271751 -0.946800 5.402775 145 142 143
-1.226004 -1.633859 5.213137 130 127 134
-1.242803 -1.228942 5.285371 120 105 106
-1.264127 -0.928968 5.407094 162 158 160
-1.234760 -1.245102 5.297048 95 79 88
-1.165328 -1.272973 5.003328 34 25 30
-1.231004 -1.158563 5.316449 56 68 92
-1.248875 -0.934283 5.396502 64 72 83
-1.240257 -1.094495 5.360202 150 141 149
-1.245524 -0.992142 5.408114 148 146 148
-1.231275 -1.117087 5.346171 145 142 153
-1.243231 -0.948669 5.404349 148 145 143
-1.243231 -0.948669 5.404349 148 145 143
-1.245493 -0.911722 5.417139 147 147 149
-1.221252 -1.234852 5.311133 130 115 123
-1.244136 -0.837240 5.424172 151 147 150
-1.244136 -0.837240 5.424172 151 147 150
-1.214833 -1.206882 5.307439 143 130 135
-1.229208 -1.063892 5.372348 126 125 130
-1.215210 -1.156243 5.323595 141 135 143
-1.215210 -1.156243 5.323595 141 135 143
-1.217189 -1.045725 5.362501 85 61 64
-1.205634 -1.224259 5.321682 86 59 61
-1.203465 -1.195438 5.321724 60 33 51
-1.223851 -0.909756 5.439849 153 152 154
-1.193026 -1.206335 5.319735 136 121 126
-1.217621 -0.927564 5.435025 67 81 95
-1.217621 -0.927564 5.435025 67 81 95
-1.210650 -0.919642 5.438138 74 81 98
-1.222390 -1.012330 5.502542 38 32 40
-1.181528 -1.211368 5.332249 85 55 60
-1.194640 -1.037844 5.428905 134 122 129
-1.194640 -1.037844 5.428905 134 122 129
-1.200347 -0.920313 5.463839 151 148 149
-1.195023 -0.943936 5.463774 66 69 80
-1.170942 -1.171822 5.379947 52 62 89
-1.196684 -0.826446 5.523740 63 65 75
-1.161535 -1.220742 5.380030 90 57 63
-1.149097 -1.202700 5.372167 146 136 136
-1.149097 -1.202700 5.372167 146 136 136
-1.205879 -1.009535 5.651948 54 55 61
-1.164912 -0.826089 5.549960 100 98 101
-1.166496 -0.909536 5.563339 36 36 43
-1.150957 -0.886797 5.533671 153 150 152
-1.153931 -0.930693 5.562575 54 57 64
-1.153931 -0.930693 5.562575 54 57 64
-1.125400 -1.215030 5.470368 152 139 142
-1.125400 -1.215030 5.470368 152 139 142
-1.077373 -1.558603 5.251198 19 17 18
-1.121110 -1.270511 5.466478 122 105 111
-1.139283 -0.842547 5.580703 143 143 144
-1.091268 -1.398303 5.369952 8 4 8
-1.068156 -1.537737 5.263219 24 22 26
-1.068156 -1.537737 5.263219 24 22 26
-1.093724 -1.392144 5.392721 14 9 13
-1.134815 -0.809276 5.599159 159 154 158
-1.069669 -1.493384 5.278296 26 23 22
-1.122523 -0.878199 5.562504 159 157 162
-1.103604 -1.264562 5.483474 132 120 128
-1.125870 -0.832044 5.597054 59 88 124
-1.119949 -0.934996 5.585674 56 77 104
-1.119949 -0.934996 5.585674 56 77 104
-1.129560 -1.003477 5.647103 37 41 52
-1.091670 -1.242341 5.488566 142 131 132
-1.091670 -1.242341 5.488566 142 131 132
-1.043169 -1.498366 5.309665 20 13 17
-1.093902 -0.901041 5.576464 70 77 90
-1.035814 -1.561853 5.297181 18 17 21
-1.092584 -1.026619 5.604631 138 126 127
-1.092584 -1.026619 5.604631 138 126 127
-1.026789 -1.568048 5.291569 13 11 14
-1.026789 -1.568048 5.291569 13 11 14
-1.050579 -1.372263 5.438529 101 82 82
-1.079382 -0.946887 5.590296 149 147 148
-1.082951 -0.837012 5.633214 68 76 89
-1.082951 -0.837012 5.633214 68 76 89
-1.074509 -0.843265 5.632345 78 84 98
-1.032109 -1.377624 5.410123 17 8 13
-1.073993 -0.903996 5.645159 157 155 161
-1.007472 -1.561517 5.302005 88 68 69
-1.068169 -0.872919 5.632246 159 156 158
-1.065346 -0.823101 5.630156 167 165 170
-1.060629 -1.027968 5.678471 82 77 82
-1.053703 -0.919063 5.645082 54 79 110
-1.045166 -0.972292 5.658581 153 151 158
-1.041293 -0.938473 5.664420 162 161 159
-1.062475 -1.235531 5.780935 51 69 100
-1.062475 -1.235531 5.780935 51 69 100
-1.031290 -0.873467 5.670889 152 151 153
-1.029116 -0.936632 5.677678 58 72 88
-1.029116 -0.936632 5.677678 58 72 88
-1.026955 -0.893406 5.669766 64 76 97
-1.025613 -0.855461 5.673456 62 79 113
-1.017264 -1.061509 5.644139 143 133 132
-1.025469 -1.018785 5.729521 153 151 155
-1.002150 -1.298991 5.614107 120 106 105
-1.014384 -0.834324 5.697596 159 158 157
-1.007252 -0.897049 5.684776 167 163 162
-1.005093 -0.860420 5.681757 165 164 176
-1.007330 -1.104207 5.704669 150 142 144
-1.002436 -0.921486 5.722226 162 160 159
-0.979003 -1.291921 5.609471 137 127 129
-0.974517 -0.872561 5.698713 167 165 167
-0.974517 -0.872561 5.698713 167 165 167
-0.976692 -0.907118 5.713832 163 160 161
-0.950387 -1.228814 5.622361 89 58 63
-0.948328 -0.896146 5.741030 165 168 162
-0.937273 -1.325347 5.696675 112 79 86
-0.942958 -0.911133 5.754347 68 80 100
-0.930216 -0.879881 5.793791 162 161 157
-0.913575 -1.358328 5.746135 25 12 17
-0.920222 -1.250943 5.798276 126 108 111
-0.925349 -0.937611 5.833473 140 136 144
-0.913710 -1.239721 5.800484 44 31 30
-0.909380 -1.269344 5.775366 138 115 123
-0.910174 -0.886604 5.792164 67 81 108
-0.906440 -0.851714 5.790242 154 153 159
-0.896601 -1.288791 5.761724 138 125 126
-0.885697 -1.353538 5.753405 22 13 16
-0.874839 -1.454016 5.738799 99 80 77
-0.874839 -1.454016 5.738799 99 80 77
-0.865716 -0.830230 5.831958 25 17 18
-0.865309 -0.850009 5.835721 166 162 162
-0.801985 -1.363835 5.736145 29 19 18
-0.813920 -0.894202 5.903538 42 27 24
-0.717353 -1.917682 5.557157 48 36 40
-0.717353 -1.917682 5.557157 48 36 40
-0.766518 -0.825792 6.005296 32 19 17
-0.766518 -0.825792 6.005296 32 19 17
-0.071760 -1.220452 7.497869 11 10 14
-0.060581 -1.611035 7.436046 10 8 11
-0.049051 -1.357996 7.377793 21 28 44
-0.024821 -1.187718 7.519918 61 54 49
0.589163 0.634850 9.166336 19 11 9
0.843729 2.377911 10.043009 34 29 18
0.581372 1.471176 5.939809 91 84 65
0.907501 1.022243 8.663071 50 47 35
0.667392 1.485089 6.034006 97 89 80
0.927780 -0.522791 8.306619 145 134 114
0.546640 1.446580 4.773342 22 28 38
0.551503 1.403007 4.767535 152 157 156
0.550545 1.414140 4.757064 26 34 42
1.139090 2.426826 9.733348 107 96 75
0.569209 1.425900 4.740729 30 35 42
0.569209 1.425900 4.740729 30 35 42
0.573914 1.400385 4.735268 31 41 40
0.575651 1.461439 4.725308 46 54 64
0.699060 1.542971 5.706883 75 86 74
0.589250 1.402493 4.747070 74 89 93
0.589250 1.402493 4.747070 74 89 93
0.601035 1.378778 4.748081 90 100 108
0.601035 1.378778 4.748081 90 100 108
0.725166 1.549450 5.661444 180 173 109
0.611411 1.362315 4.758710 88 97 108
0.843426 1.464901 6.390534 40 38 26
1.194060 1.025813 8.725315 80 71 66
0.788670 1.546923 5.733502 48 53 58
1.151333 1.463456 7.622867 31 30 18
1.004846 1.497193 6.610973 30 22 10
1.005987 1.557339 6.574461 113 105 85
1.177301 1.463245 7.687147 84 78 59
1.021225 1.507762 6.627605 127 120 102
1.041445 1.514908 6.663137 21 18 10
1.046042 1.499006 6.678723 127 114 99
1.038230 1.569168 6.617119 24 22 27
0.970040 1.541135 6.181549 63 47 53
0.737613 1.481783 4.640860 64 78 86
0.750832 1.501606 4.634347 11 16 21
1.116315 1.479364 6.809166 120 109 84
0.759904 1.475567 4.643750 46 56 56
1.112483 1.558334 6.754543 109 103 96
1.126746 1.459168 6.847115 42 35 20
1.126746 1.459168 6.847115 42 35 20
1.057207 1.543224 6.358953 134 83 88
1.154513 1.454570 6.934818 110 99 69
0.786588 1.436209 4.713901 94 110 120
0.784468 1.470218 4.635661 156 163 162
0.782368 1.505457 4.617816 24 33 41
0.790500 1.437251 4.668425 54 64 66
0.786522 1.506745 4.636995 35 51 59
1.502948 1.089284 8.739736 86 78 64
0.798916 1.499925 4.624478 145 154 155
1.499601 1.063096 8.618920 95 90 73
1.410214 1.438121 8.080974 28 24 10
0.842297 1.381023 4.835693 37 39 44
0.798816 1.648426 4.556840 49 70 97
0.822164 1.450441 4.701248 176 181 180
1.249642 1.456186 7.088481 83 79 53
0.815045 1.513950 4.606687 52 68 70
0.829297 1.403709 4.684406 28 32 36
1.482026 1.357399 8.287386 45 44 40
1.272407 1.463724 7.072306 35 27 10
1.285478 1.461619 7.126989 127 112 96
1.191981 1.529667 6.603255 115 82 79
1.430790 1.452022 7.906572 79 72 55
0.846774 1.443853 4.694687 61 80 85
1.283854 1.519143 7.050994 22 20 10
1.299476 1.494010 7.112772 93 90 74
0.861264 1.436598 4.710331 45 61 60
0.866442 1.499992 4.699597 173 173 173
1.315154 1.480704 7.136827 24 22 9
1.315154 1.480704 7.136827 24 22 9
1.315671 1.526250 7.098286 79 76 65
1.315671 1.526250 7.098286 79 76 65
1.509110 1.446209 8.072552 29 26 21
1.323576 1.542402 7.068118 31 34 41
1.323576 1.542402 7.068118 31 34 41
0.862324 1.768069 4.446650 169 103 106
1.214621 1.572685 6.238894 53 51 53
1.617717 1.340690 8.285914 38 37 32
0.966531 1.426741 4.935282 87 101 108
0.885886 1.687588 4.461517 86 91 80
0.967001 1.450715 4.888740 149 153 155
0.967001 1.450715 4.888740 149 153 155
1.670977 1.446105 8.381455 9 9 6
0.891635 1.718733 4.462370 143 139 108
1.333129 1.567527 6.663969 41 45 53
1.258852 1.582771 6.260931 39 48 59
0.899777 1.764658 4.461337 40 41 43
1.515935 1.456041 7.533095 31 25 12
0.977815 1.454325 4.864497 65 83 88
0.932264 1.506023 4.604074 167 170 168
1.692342 1.390581 8.334811 72 68 65
0.912025 1.700077 4.460283 129 105 95
0.936961 1.507051 4.586334 59 84 89
1.384849 1.552927 6.727144 47 50 55
1.547811 1.529339 7.479898 115 98 83
0.959715 1.493906 4.649446 177 179 177
1.304267 1.591497 6.288152 124 95 92
0.949710 1.489764 4.587165 84 102 110
1.804435 1.162284 8.689031 85 79 61
1.542063 1.558724 7.396285 42 36 35
1.648087 1.449955 7.890548 103 94 76
1.592597 1.470068 7.611363 22 15 6
0.972965 1.480906 4.656118 176 177 175
0.936197 1.781655 4.438063 163 88 91
1.591071 1.514679 7.546381 22 19 12
0.962942 1.530110 4.575190 24 32 36
0.943383 1.728087 4.460248 25 36 35
1.618948 1.499211 7.641396 26 26 19
1.521962 1.525557 7.163477 116 68 66
0.977022 1.509342 4.582983 24 40 45
1.000077 1.486536 4.649522 176 177 176
0.991899 1.517123 4.576358 69 88 89
0.998961 1.491753 4.590209 52 65 71
1.005593 1.500017 4.585154 88 105 113
1.005593 1.500017 4.585154 88 105 113
1.930823 1.259864 8.764880 90 83 71
1.031926 1.489392 4.628193 92 110 119
1.031513 1.487673 4.624247 92 110 119
1.792146 1.464650 7.990023 134 117 98
1.763873 1.576822 7.859464 39 33 28
1.492178 1.599769 6.628657 38 41 53
1.146780 1.443884 5.093169 32 43 44
2.056582 1.257357 8.951917 12 10 11
1.865745 1.448978 8.092345 16 13 5
1.471039 1.623406 6.365901 59 54 47
1.044594 1.674036 4.506175 48 68 93
2.084117 1.319407 8.909544 10 8 9
1.530943 1.616776 6.527106 51 44 55
1.894525 1.568263 8.059110 76 71 62
1.909361 1.526397 8.089869 23 20 15
1.909361 1.526397 8.089869 23 20 15
2.153816 1.228865 9.102750 67 56 43
1.636439 1.592035 6.894356 129 95 90
1.935256 1.542820 8.128538 89 81 63
2.238061 1.104339 9.302908 7 5 1
2.240724 1.168528 9.274504 60 55 50
2.256329 1.125256 9.311754 80 72 72
2.135534 1.429825 8.568956 78 72 52
2.040530 0.654365 8.143430 24 13 11
1.766273 1.619776 7.050927 119 76 71
1.766273 1.619776 7.050927 119 76 71
1.147447 1.507530 4.587952 66 71 75
2.151341 1.480713 8.537054 30 24 11
1.756266 1.611256 6.908841 47 37 48
1.610489 1.646355 6.307163 53 45 47
2.232543 1.449419 8.675594 109 99 92
1.771956 1.618370 6.865960 100 82 85
2.105238 1.545944 8.107344 37 33 27
1.187367 1.518977 4.536222 35 43 50
1.187367 1.518977 4.536222 35 43 50
2.335388 1.403108 8.896057 44 40 31
1.190614 1.526364 4.526156 78 98 107
1.615637 1.662177 6.096776 134 120 99
1.338407 1.483351 5.061367 22 28 34
1.356885 1.475510 5.122014 161 162 159
1.206240 1.515567 4.544912 98 114 127
2.399993 1.438568 8.997658 106 97 83
2.425195 1.393181 9.034362 105 97 87
2.430683 1.390533 9.052624 103 95 85
2.496315 1.447063 9.072007 26 22 10
1.244610 1.509397 4.527240 174 176 175
1.242657 1.534740 4.507558 29 42 60
1.721731 1.675059 6.207593 46 53 62
1.269200 1.510961 4.544584 101 118 116
1.253006 1.710792 4.453970 139 97 113
1.253006 1.710792 4.453970 139 97 113
1.253006 1.710792 4.453970 139 97 113
2.330128 1.547849 8.272112 42 37 36
1.260259 1.709890 4.468399 62 43 61
1.268344 1.533964 4.507223 38 50 53
0.955469 -2.442532 3.345812 54 50 41
0.947185 -2.436501 3.311976 93 88 77
1.278581 1.709227 4.472097 120 83 93
2.127976 1.623624 7.385812 44 38 42
1.299105 1.541183 4.496155 90 101 111
2.657892 1.424700 9.125338 15 10 7
2.161592 1.633616 7.399325 39 38 45
1.800977 1.661898 6.013810 137 93 77
1.311291 1.881733 4.334422 85 104 113
1.352244 1.528275 4.483592 44 58 58
1.834403 1.657747 6.060350 35 34 42
1.329703 1.883400 4.365113 43 59 82
2.588262 1.413360 8.493475 134 127 113
2.328170 1.665712 7.555943 38 31 26
1.857342 1.688361 5.993741 57 51 58
2.605300 1.565335 8.351799 83 57 59
2.617864 1.582168 8.371827 86 62 61
2.617864 1.582168 8.371827 86 62 61
2.249790 1.689972 7.186408 48 43 44
1.405898 1.530257 4.478057 34 48 48
1.421939 1.519967 4.501825 62 82 91
1.432621 1.646783 4.502295 31 34 38
1.608771 1.537996 5.057316 8 18 18
1.451183 1.520918 4.559504 100 119 126
2.016377 1.717824 6.237296 62 56 69
1.953886 1.718093 5.976472 72 65 72
2.006809 1.732696 6.112195 120 102 82
2.788849 1.551720 8.397611 20 21 21
2.787305 1.598084 8.379452 141 123 99
2.136965 1.731799 6.404618 57 57 58
2.065109 1.734674 6.108846 143 132 111
2.868696 1.622935 8.446895 34 29 30
2.868696 1.622935 8.446895 34 29 30
2.213972 1.740705 6.510217 52 52 49
2.867406 1.555220 8.419806 40 19 19
1.499146 1.828764 4.356982 15 22 30
2.889009 1.551747 8.399038 30 16 11
2.586632 1.759356 7.498729 46 45 47
2.935724 1.505524 8.511596 43 37 34
1.519633 1.777756 4.372762 24 36 55
1.617975 1.523019 4.660152 25 29 30
1.617975 1.523019 4.660152 25 29 30
1.529154 1.796286 4.387397 89 103 103
1.527650 1.817845 4.374033 22 31 24
2.990546 1.509056 8.563427 39 32 23
1.526839 1.850346 4.358587 84 95 89
1.518803 1.901495 4.319523 173 159 87
2.990726 1.525684 8.502776 85 55 40
3.008240 1.506458 8.548903 133 118 87
3.008240 1.506458 8.548903 133 118 87
3.012243 1.491149 8.541813 139 123 88
2.299418 1.745954 6.505282 151 146 126
2.993825 1.493551 8.447948 41 33 24
1.564654 1.833878 4.362695 163 161 105
3.039860 1.730493 8.465061 20 21 29
1.559588 1.845138 4.336360 80 97 78
1.738083 1.659075 4.836038 27 31 33
2.400598 1.777833 6.667203 130 131 117
1.568421 1.874697 4.327584 87 61 74
2.812056 1.799352 7.655738 113 88 83
2.565374 1.792104 6.756437 90 85 91
2.762241 1.813955 7.176849 112 81 82
1.663420 1.934830 4.312583 3 3 4
1.682500 1.919508 4.321697 51 63 85
3.219816 1.817672 8.278578 117 101 97
3.219816 1.817672 8.278578 117 101 97
2.034990 1.774865 5.211876 79 91 88
2.289664 1.786536 5.854671 45 59 59
2.887027 1.832828 7.357502 47 45 51
3.053390 1.835847 7.773017 50 40 46
3.383594 1.792319 8.597819 15 10 10
3.497460 1.468405 8.894513 49 35 35
3.497460 1.468405 8.894513 49 35 35
2.411585 1.792017 6.081051 57 51 56
2.426604 1.770018 6.109426 121 86 84
1.971979 1.759542 4.970745 42 43 42
2.270776 1.788527 5.720756 44 57 60
2.374182 1.787584 5.973390 170 149 125
2.320406 1.789061 5.800231 57 63 66
3.455465 1.768897 8.587594 67 68 58
2.520063 1.794067 6.224172 125 89 93
3.488254 1.802979 8.597012 10 8 8
2.511193 1.801340 6.170761 136 95 100
3.593540 1.628802 8.778353 98 68 75
2.314340 1.807637 5.624431 67 56 68
2.534325 1.810729 6.147362 130 92 91
3.595404 1.768139 8.690130 93 62 59
2.160619 1.789320 5.212279 41 49 64
3.052359 1.853921 7.275807 101 78 81
2.116227 1.790537 5.024170 146 88 100
2.116227 1.790537 5.024170 146 88 100
3.659746 1.825978 8.634868 12 11 7
2.171651 1.791234 5.124819 56 63 80
3.741644 1.858586 8.767550 13 11 10
3.741644 1.858586 8.767550 13 11 10
3.768909 1.666049 8.826014 95 64 73
3.768909 1.666049 8.826014 95 64 73
2.335122 1.787753 5.459828 186 178 126
2.407593 1.781123 5.580042 55 58 69
2.308286 1.794218 5.348159 49 61 67
3.814971 1.874283 8.777761 9 1 1
2.519907 1.813194 5.799018 92 57 60
1.983896 1.790472 4.559673 159 110 118
2.640513 1.822010 6.058041 62 69 81
2.243301 1.789750 5.128937 181 174 135
2.004072 1.790044 4.582237 49 56 72
2.463207 1.799509 5.629913 196 178 148
2.370221 1.812107 5.377186 154 152 137
2.370221 1.812107 5.377186 154 152 137
3.863764 1.872206 8.747034 21 19 24
3.310369 1.880407 7.477365 46 41 44
2.723545 1.822235 6.144935 89 92 76
3.935464 1.846549 8.853279 141 125 102
1.931484 1.955107 4.333564 64 79 82
2.654387 1.820492 5.949068 58 62 71
2.438419 1.814124 5.464473 50 60 68
3.960427 1.739052 8.818434 38 38 42
3.960427 1.739052 8.818434 38 38 42
2.074212 1.794839 4.618209 160 122 105
3.953391 1.878543 8.769811 26 25 22
3.953391 1.878543 8.769811 26 25 22
2.558979 1.803677 5.675305 52 39 46
4.056171 1.685796 8.977418 88 49 33
4.056171 1.685796 8.977418 88 49 33
1.971852 1.977096 4.350829 70 81 85
1.971852 1.977096 4.350829 70 81 85
2.061810 1.803414 4.559892 65 64 72
2.061810 1.803414 4.559892 65 64 72
4.020214 1.771792 8.874083 34 34 37
4.118225 1.639682 9.076074 125 122 96
2.353019 1.806933 5.179039 74 63 69
4.021147 1.792606 8.834568 34 33 37
2.073881 1.811490 4.559534 149 107 109
2.999077 1.860969 6.580000 48 43 50
2.999077 1.860969 6.580000 48 43 50
3.314468 1.874469 7.274113 92 72 74
2.479112 1.826087 5.439951 56 60 64
2.416229 1.822163 5.295374 109 76 58
2.360373 1.816663 5.169492 51 53 69
3.023612 1.857851 6.616269 98 81 84
2.387814 1.815830 5.192620 165 96 89
2.220623 1.810844 4.830710 188 181 140
2.352202 1.817813 5.110488 156 105 97
3.374141 1.876289 7.318295 103 75 77
2.453165 1.820727 5.292503 75 46 54
2.453165 1.820727 5.292503 75 46 54
2.801575 1.834384 6.040812 59 57 63
2.892667 1.847115 6.230648 71 71 59
2.595581 1.871121 5.492794 149 85 80
2.595581 1.871121 5.492794 149 85 80
2.448984 1.824091 5.180713 165 94 88
4.266189 1.741710 8.999354 103 63 65
2.415439 1.832669 5.075595 61 57 46
4.029183 1.940506 8.458004 44 40 39
2.388983 1.827838 5.010784 59 51 57
2.741347 1.835562 5.729371 98 99 95
4.224744 1.969254 8.806643 35 34 31
4.224744 1.969254 8.806643 35 34 31
2.845011 1.822283 5.940845 42 45 49
3.191353 1.889634 6.651150 153 150 135
2.436129 1.836811 5.066709 69 62 70
3.097338 1.874396 6.417543 123 84 83
4.309709 1.833857 8.926285 94 55 56
4.309709 1.833857 8.926285 94 55 56
4.309709 1.833857 8.926285 94 55 56
2.829031 1.826226 5.843138 49 51 67
2.511489 1.834962 5.178768 160 90 85
2.511489 1.834962 5.178768 160 90 85
2.476964 1.839961 5.097390 162 105 93
3.098961 1.876282 6.369737 48 41 42
2.500406 1.840643 5.130730 80 49 52
3.451684 1.900936 7.070651 141 138 126
3.533397 1.912945 7.165881 53 53 56
2.769681 1.859331 5.602520 61 70 79
1.885419 -2.296185 3.791847 43 39 27
1.885419 -2.296185 3.791847 43 39 27
2.650690 1.850011 5.335422 69 61 70
2.462934 1.863217 4.953143 47 53 61
2.573119 1.850566 5.175769 166 98 94
2.643044 1.855543 5.307975 59 59 67
2.948704 1.833805 5.919397 57 50 52
4.536574 1.860603 9.082301 93 59 49
4.536574 1.860603 9.082301 93 59 49
4.536574 1.860603 9.082301 93 59 49
2.458490 1.887358 4.916777 120 98 101
2.609836 1.867138 5.201173 79 66 75
2.549792 1.868042 5.076635 208 193 170
2.660378 1.859264 5.283865 56 41 54
2.597612 1.870317 5.157125 154 95 90
3.007332 1.855975 5.969541 71 64 71
3.007332 1.855975 5.969541 71 64 71
2.946582 1.843159 5.829248 61 49 58
2.634552 1.881441 5.175667 51 46 60
2.754748 1.867551 5.409725 155 85 73
2.754748 1.867551 5.409725 155 85 73
2.547381 1.942120 4.995276 118 81 91
2.663165 1.892693 5.202127 54 52 57
2.717486 1.881326 5.300804 145 80 70
3.070332 1.851020 5.987347 164 160 92
2.763753 1.884958 5.380808 186 178 133
2.687229 1.928315 5.209288 172 158 124
2.687229 1.928315 5.209288 172 158 124
3.085808 1.885257 5.981837 62 60 66
2.877009 1.895216 5.552556 49 59 66
3.157768 1.873578 6.096512 168 166 111
3.089019 1.893716 5.937894 129 96 90
2.839818 1.904175 5.456264 49 61 65
2.703219 1.987963 5.180772 43 48 53
3.278625 1.887161 6.287598 168 169 129
2.927477 1.898563 5.607720 44 53 55
2.912953 1.928096 5.573016 59 70 74
3.271552 1.883273 6.249280 52 59 54
2.974156 1.907519 5.675543 153 95 96
3.250001 1.885417 6.201703 59 69 70
2.816070 1.962498 5.366065 46 56 62
3.593969 1.913050 6.826751 104 88 89
2.715117 2.073483 5.145154 74 73 78
2.904807 1.941134 5.500957 174 168 134
3.576935 1.919419 6.750157 111 87 95
3.347032 1.899089 6.308574 49 57 62
2.781950 2.084649 5.234438 122 70 76
2.896141 1.961359 5.450358 42 49 54
2.847227 2.013857 5.356012 46 56 58
2.930726 2.001864 5.497097 46 56 60
2.997213 1.964035 5.624111 48 57 52
4.841303 2.004776 9.073002 3 0 2
2.827872 2.082746 5.288991 152 140 95
3.014971 1.977056 5.622393 172 160 114
4.865597 2.002321 9.051785 9 3 2
2.944571 2.079937 5.453052 154 143 109
2.944571 2.079937 5.453052 154 143 109
2.943667 2.074117 5.448421 154 143 109
4.351248 1.953978 8.044541 37 41 44
4.351248 1.953978 8.044541 37 41 44
3.040845 2.041625 5.610207 50 44 48
3.015419 2.068188 5.548717 123 73 74
3.149951 2.034654 5.776206 148 108 100
3.593349 1.937826 6.567354 122 89 79
3.352273 2.024394 6.048328 85 88 84
3.609509 1.989938 6.508580 52 44 42
3.511256 2.003309 6.319380 34 29 31
3.452545 2.028037 6.209901 103 81 77
4.102589 1.964436 7.366612 34 30 27
3.492167 2.034345 6.260460 39 40 52
3.451728 2.060224 6.166899 93 82 86
4.176622 2.000087 7.369946 34 27 24
4.405051 2.017580 7.734922 50 38 37
5.781961 2.064351 10.144506 104 91 82
5.400791 2.069885 9.450474 106 97 84
4.408258 2.063327 7.604586 151 135 108
5.123199 2.133759 8.570878 38 23 21
5.123199 2.133759 8.570878 38 23 21
5.854633 2.134733 9.795541 122 113 91
