ply
format ascii 1.0
element vertex 434
property float x
property float y
property float z
property uchar red
property uchar green
property uchar blue
end_header
-0.771841 -1.022738 7.579592 34 37 52
0.731081 0.638171 4.017936 149 107 109
0.728118 0.636490 4.024983 65 64 72
0.728118 0.636490 4.024983 65 64 72
0.731840 0.632696 4.069624 160 122 105
0.706739 0.637401 4.059771 159 110 118
-1.185632 -0.641180 6.822123 240 232 226
-1.179151 -0.401219 6.806830 202 196 184
-1.158478 -0.387130 6.781415 69 42 39
-0.840461 -0.364676 6.309751 39 27 27
-0.847657 -0.810642 6.496174 125 54 76
-0.927841 -0.597493 7.115888 119 120 128
-0.858310 -0.451794 6.611848 157 149 155
-0.916633 -0.667772 7.084762 112 114 125
-0.916633 -0.667772 7.084762 112 114 125
-0.896997 -0.509517 6.957660 156 153 162
-0.850765 -0.721169 6.668673 125 96 92
-0.900909 -0.615705 7.128429 134 122 125
-0.890297 -0.691527 7.045424 81 72 83
-0.891431 -0.549626 7.084211 151 145 152
-0.875915 -0.484774 6.972625 46 19 28
-0.888279 -0.652725 7.075243 16 16 25
-0.889185 -0.539314 7.108707 42 42 49
-0.879633 -0.656928 7.075391 137 125 134
-0.829840 -0.726859 6.678267 26 12 27
-0.875059 -0.429291 7.088514 35 16 22
-0.875059 -0.429291 7.088514 35 16 22
-0.872372 -0.628586 7.081277 140 137 140
-0.871844 -0.524975 7.078779 151 144 151
-0.869066 -0.544377 7.067462 122 121 127
-0.821999 -0.734609 6.685378 109 54 75
-0.870950 -0.566518 7.119377 37 44 67
-0.860133 -0.492013 7.045516 45 47 56
-0.864686 -0.635621 7.101836 40 38 53
-0.860994 -0.558003 7.086547 136 136 140
-0.812732 -0.738680 6.702714 37 13 27
-0.861416 -0.613736 7.106349 138 145 163
-0.854297 -0.657278 7.057331 64 33 37
-0.856504 -0.525490 7.076927 119 119 129
-0.854934 -0.680242 7.067163 138 123 124
-0.860098 -0.568263 7.121954 142 141 146
-0.861357 -0.635090 7.133383 47 49 65
-0.859171 -0.626788 7.118203 112 115 125
-0.848404 -0.499641 7.031493 141 140 143
-0.814793 -0.816739 6.797600 145 104 122
-0.837833 -0.495697 7.033180 51 58 79
-0.822586 -0.380368 6.927780 64 58 48
-0.847971 -0.607265 7.142980 28 38 58
-0.836874 -0.544327 7.057674 138 137 139
-0.836165 -0.674276 7.057305 136 123 118
-0.836165 -0.674276 7.057305 136 123 118
-0.838847 -0.621785 7.084988 119 120 127
-0.838847 -0.621785 7.084988 119 120 127
-0.831615 -0.501694 7.031642 140 139 142
-0.798896 -0.808770 6.772761 38 19 31
-0.832162 -0.544602 7.064837 149 149 153
-0.825522 -0.487250 7.013257 144 143 149
-0.832411 -0.412679 7.082306 27 18 23
-0.824277 -0.514223 7.019977 143 142 145
-0.818757 -0.454698 7.001918 31 33 44
-0.818344 -0.473672 7.003371 47 46 59
-0.819225 -0.524873 7.033871 159 157 163
-0.816147 -0.439243 7.010720 139 138 142
-0.812801 -0.483803 7.012058 146 146 149
-0.811001 -0.517310 7.017044 56 63 73
-0.807141 -0.444285 7.012423 48 59 79
-0.804633 -0.434015 7.002265 140 141 142
-0.801180 -0.442553 7.000594 140 140 146
-0.801214 -0.485729 7.005758 30 35 53
-0.801892 -0.462815 7.012926 76 82 93
-0.798708 -0.514422 6.994432 170 170 171
-0.796761 -0.465917 7.007185 64 62 73
-0.854838 -1.055166 7.519349 29 30 48
-0.854838 -1.055166 7.519349 29 30 48
-0.850578 -1.063881 7.520892 77 75 96
-0.791394 -0.493316 7.006668 66 77 96
-0.791394 -0.493316 7.006668 66 77 96
-0.835959 -0.981650 7.402265 51 51 69
-0.775149 -0.731105 6.864012 24 14 24
-0.847787 -1.040494 7.514641 30 29 49
-0.788559 -0.454722 6.994002 162 163 165
-0.845175 -1.049790 7.517910 107 107 117
-0.834034 -0.990801 7.425550 117 111 119
-0.785803 -0.426323 7.000296 52 67 86
-0.785803 -0.426323 7.000296 52 67 86
-0.843419 -1.061255 7.533948 28 30 58
-0.773588 -0.777397 6.913326 33 16 28
-0.773588 -0.777397 6.913326 33 16 28
-0.840722 -1.028892 7.517788 27 28 50
-0.783166 -0.444526 7.005145 56 71 88
-0.829015 -0.997050 7.419459 35 32 56
-0.767976 -0.750801 6.873199 135 109 116
-0.786462 -0.510939 7.040168 65 79 104
-0.792083 -0.540824 7.114496 69 80 94
-0.835570 -1.066791 7.515156 81 81 101
-0.816847 -0.925208 7.354116 35 27 52
-0.831611 -1.027382 7.524101 121 117 131
-0.810017 -0.592847 7.348204 50 51 62
-0.814910 -0.946661 7.404869 33 35 56
-0.766684 -0.402394 6.974029 28 15 21
-0.826112 -1.062088 7.518954 31 35 57
-0.771454 -0.454918 7.027894 28 32 43
-0.768087 -0.420528 7.001010 121 123 129
-0.812388 -0.955495 7.413479 109 110 121
-0.804993 -0.908319 7.345926 27 22 36
-0.804993 -0.908319 7.345926 27 22 36
-0.824136 -1.051559 7.539072 17 21 39
-0.797905 -0.681049 7.299051 159 146 147
-0.822579 -1.023516 7.530728 28 29 48
-0.813701 -0.994653 7.452053 119 117 127
-0.775025 -0.524418 7.105244 58 74 99
-0.775025 -0.524418 7.105244 58 74 99
-0.762516 -0.432411 7.001268 64 78 100
-0.820539 -1.040202 7.544648 24 26 47
-0.757903 -0.425387 7.002826 157 159 159
-0.747921 -0.534188 6.914887 115 116 119
-0.768512 -0.506638 7.112766 164 162 164
-0.801162 -0.958353 7.423894 115 113 128
-0.792146 -0.905434 7.341084 33 34 53
-0.811781 -1.055729 7.549356 41 39 60
-0.765283 -0.528265 7.177148 61 70 88
-0.765283 -0.528265 7.177148 61 70 88
-0.748031 -0.753720 7.027709 145 141 146
-0.805465 -1.028259 7.572387 109 109 119
-0.805465 -1.028259 7.572387 109 109 119
-0.780298 -0.896137 7.336574 18 23 39
-0.759085 -0.783091 7.145775 25 23 40
-0.759085 -0.783091 7.145775 25 23 40
-0.759085 -0.783091 7.145775 25 23 40
-0.744894 -0.438410 7.014628 38 40 49
-0.790549 -0.945265 7.454019 28 30 51
-0.762515 -0.531402 7.214094 149 148 153
-0.785803 -0.934008 7.436918 142 142 151
-0.758282 -0.528116 7.187517 148 150 153
-0.795781 -1.054600 7.550264 108 107 121
-0.775649 -0.898412 7.360591 133 134 148
-0.775649 -0.898412 7.360591 133 134 148
-0.749921 -0.789342 7.135502 119 119 126
-0.772315 -0.887093 7.349776 34 31 48
-0.737805 -0.744676 7.031074 130 125 131
-0.770586 -0.876398 7.344330 151 144 157
-0.753330 -0.517734 7.196450 65 69 83
-0.791348 -1.046447 7.561016 33 35 56
-0.778782 -0.589700 7.441975 105 97 103
-0.743555 -0.783574 7.135352 27 27 48
-0.743555 -0.783574 7.135352 27 27 48
-0.775082 -0.926467 7.441035 139 136 145
-0.775082 -0.926467 7.441035 139 136 145
-0.786868 -1.035942 7.558386 117 117 129
-0.766123 -0.888051 7.365473 142 137 144
-0.743721 -0.797711 7.153112 36 39 58
-0.743721 -0.797711 7.153112 36 39 58
-0.784327 -1.049380 7.559402 117 115 126
-0.728787 -0.744560 7.041250 34 33 48
-0.728787 -0.744560 7.041250 34 33 48
-0.782288 -1.027314 7.568128 32 36 58
-0.745806 -0.503876 7.220211 61 68 82
-0.745806 -0.503876 7.220211 61 68 82
-0.774302 -0.955493 7.497363 25 27 37
-0.780355 -1.040904 7.568686 30 30 40
-0.735811 -0.789623 7.136268 138 137 146
-0.735811 -0.789623 7.136268 138 137 146
-0.780491 -0.997028 7.594604 20 23 39
-0.764117 -0.579481 7.436005 66 56 58
-0.750605 -0.540175 7.312024 149 147 153
-0.740057 -0.498301 7.226830 163 162 166
-0.742741 -0.483780 7.265063 53 72 96
-0.728498 -0.782884 7.131564 29 30 49
-0.728498 -0.782884 7.131564 29 30 49
-0.719037 -0.743598 7.042101 157 155 164
-0.774156 -1.009815 7.586368 19 24 45
-0.713417 -0.431409 6.993583 146 147 153
-0.718112 -0.735201 7.039994 21 18 29
-0.771841 -1.022738 7.579592 34 37 52
-0.770314 -1.000552 7.591738 130 129 136
-0.721475 -0.761651 7.116485 132 130 141
-0.756239 -0.871598 7.468241 29 31 51
-0.721652 -0.775403 7.127203 156 153 162
-0.721652 -0.775403 7.127203 156 153 162
-0.721831 -0.786904 7.133129 146 145 155
-0.734282 -0.483655 7.267072 155 154 159
-0.763516 -0.989262 7.583555 36 38 51
-0.763702 -1.004842 7.599308 27 26 46
-0.763702 -1.004842 7.599308 27 26 46
-0.714854 -0.768330 7.127254 28 31 58
-0.762348 -0.982702 7.609047 128 122 135
-0.736148 -0.653504 7.349154 95 57 66
-0.729928 -0.496006 7.297542 164 159 163
-0.706293 -0.759985 7.113892 147 144 156
-0.706293 -0.759985 7.113892 147 144 156
-0.706293 -0.759985 7.113892 147 144 156
-0.707527 -0.772954 7.131875 151 150 157
-0.763420 -0.580163 7.700082 155 147 145
-0.716528 -0.427849 7.227901 115 115 125
-0.724196 -0.482421 7.308373 55 67 87
-0.755240 -1.001891 7.625300 34 35 61
-0.753983 -0.965257 7.632272 137 138 146
-0.749644 -0.596236 7.599726 138 128 124
-0.751697 -0.993507 7.636695 128 128 141
-0.751697 -0.993507 7.636695 128 128 141
-0.750246 -0.956530 7.647114 22 21 37
-0.750246 -0.956530 7.647114 22 21 37
-0.717528 0.362756 7.313698 125 112 92
-0.693655 -0.740870 7.073236 142 144 149
-0.748618 -0.985120 7.642568 25 27 42
-0.716796 -0.792737 7.317766 96 100 113
-0.747714 -0.934992 7.655240 109 108 122
-0.701633 0.391412 7.193634 41 36 17
-0.741036 -0.583174 7.610577 153 138 138
-0.691754 -0.757878 7.106504 155 155 165
-0.745676 -0.927634 7.677335 27 26 40
-0.745676 -0.927634 7.677335 27 26 40
-0.749885 -0.912619 7.726591 89 89 100
-0.749885 -0.912619 7.726591 89 89 100
-0.686323 -0.742086 7.086093 27 32 51
-0.742488 -0.983454 7.677240 38 41 59
-0.742488 -0.983454 7.677240 38 41 59
-0.714483 -0.473442 7.404218 42 48 63
-0.700635 0.381209 7.263835 39 33 15
-0.741415 -0.968654 7.701736 27 31 48
-0.741415 -0.968654 7.701736 27 31 48
-0.742612 -0.961596 7.719400 114 113 123
-0.681098 0.434040 7.088524 117 105 79
-0.679569 -0.743871 7.104249 158 161 167
-0.735118 -0.980683 7.701680 24 26 47
-0.732418 -0.598954 7.680280 157 148 151
-0.732418 -0.598954 7.680280 157 148 151
-0.730825 -0.557883 7.675024 61 66 77
-0.734363 -0.973332 7.718150 128 127 134
-0.734363 -0.973332 7.718150 128 127 134
-0.737959 -0.951371 7.761295 40 38 60
-0.737959 -0.951371 7.761295 40 38 60
-0.725255 -0.580432 7.631040 140 128 130
-0.728284 -0.565175 7.699227 144 144 150
-0.702552 0.362892 7.463181 134 124 102
-0.702552 0.362892 7.463181 134 124 102
-0.714405 -0.619740 7.594879 130 124 135
-0.720236 -0.539238 7.660735 145 142 143
-0.726784 -0.969558 7.740429 130 127 134
-0.715632 -0.709275 7.621439 120 105 106
-0.672617 0.424305 7.180326 128 115 88
-0.672617 0.424305 7.180326 128 115 88
-0.715134 -0.528475 7.657338 162 158 160
-0.704943 -0.665231 7.624337 56 68 92
-0.705428 -0.530518 7.632138 64 72 83
-0.708146 -0.627073 7.663601 150 141 149
-0.706644 -0.565545 7.682797 148 146 148
-0.703639 -0.640323 7.650361 145 142 153
-0.703028 -0.539153 7.651605 148 145 143
-0.703028 -0.539153 7.651605 148 145 143
-0.702758 -0.712168 7.654762 130 115 123
-0.662338 0.425802 7.211304 125 112 91
-0.698427 -0.473066 7.622325 151 147 150
-0.698427 -0.473066 7.622325 151 147 150
-0.697445 -0.694365 7.631064 143 130 135
-0.700078 -0.608045 7.661355 126 125 130
-0.695322 -0.663204 7.628231 141 135 143
-0.695322 -0.663204 7.628231 141 135 143
-0.673311 0.388116 7.410510 40 37 22
-0.673311 0.388116 7.410510 40 37 22
-0.691543 -0.596114 7.628811 85 61 64
-0.693030 -0.705160 7.661200 86 59 61
-0.713128 0.317972 7.895933 36 29 13
-0.690303 -0.687103 7.644359 60 33 51
-0.711575 0.320691 7.901280 37 30 15
-0.690366 -0.515828 7.681531 153 152 154
-0.703795 0.346866 7.846858 71 65 51
-0.684381 -0.693297 7.642539 136 121 126
-0.687277 -0.526081 7.680048 67 81 95
-0.687277 -0.526081 7.680048 67 81 95
-0.682386 -0.520887 7.674572 74 81 98
-0.696605 -0.579433 7.848830 38 32 40
-0.677906 -0.696222 7.661842 85 55 60
-0.678804 -0.591716 7.723834 134 122 129
-0.678804 -0.591716 7.723834 134 122 129
-0.677162 -0.521612 7.716192 151 148 149
-0.625134 0.481623 7.135658 124 109 83
-0.662718 -0.638966 7.575332 154 150 156
-0.674789 -0.535377 7.724536 66 69 80
-0.670594 -0.672372 7.715108 52 62 89
-0.671227 -0.466450 7.755619 63 65 75
-0.667266 -0.702427 7.739852 90 57 63
-0.680108 0.362163 7.898310 52 46 32
-0.615347 0.489873 7.158171 118 107 85
-0.658477 -0.690212 7.709603 146 136 136
-0.658477 -0.690212 7.709603 146 136 136
-0.688393 -0.579442 8.078717 54 55 61
-0.623136 0.440180 7.406378 129 114 93
-0.657866 -0.515434 7.855034 36 36 43
-0.588190 0.553990 7.028849 122 110 86
-0.647008 -0.500727 7.787453 153 150 152
-0.651484 -0.527712 7.862321 54 57 64
-0.651484 -0.527712 7.862321 54 57 64
-0.646591 -0.699276 7.871347 152 139 142
-0.646591 -0.699276 7.871347 152 139 142
-0.596300 0.484294 7.301374 124 110 85
-0.636471 -0.486971 7.799582 165 165 173
-0.638828 -0.474795 7.833193 143 143 144
-0.633533 -0.812007 7.807732 8 4 8
-0.624186 -0.898191 7.704094 24 22 26
-0.624186 -0.898191 7.704094 24 22 26
-0.635129 -0.808794 7.843025 14 9 13
-0.634976 -0.455272 7.841960 159 154 158
-0.623319 -0.869832 7.703823 26 23 22
-0.630280 -0.495080 7.818407 159 157 162
-0.636270 -0.730016 7.917560 132 120 128
-0.630629 -0.468333 7.847681 59 88 124
0.567228 0.578426 4.243639 88 111 118
-0.631724 -0.529349 7.888106 56 77 104
-0.631724 -0.529349 7.888106 56 77 104
-0.642243 -0.572697 8.038482 37 41 52
-0.627954 -0.715481 7.906895 142 131 132
-0.627954 -0.715481 7.906895 142 131 132
-0.608505 -0.873356 7.755993 20 13 17
-0.614510 -0.507827 7.842401 70 77 90
-0.606011 -0.913326 7.764043 18 17 21
-0.620089 -0.584209 7.964725 138 126 127
-0.620089 -0.584209 7.964725 138 126 127
-0.562448 0.534852 7.227074 128 111 88
-0.601139 -0.917311 7.759648 13 11 14
-0.601139 -0.917311 7.759648 13 11 14
-0.608992 -0.795505 7.894765 101 82 82
-0.607783 -0.534726 7.882517 149 147 148
-0.605971 -0.470259 7.890816 68 76 89
-0.605971 -0.470259 7.890816 68 76 89
-0.601381 -0.473718 7.890993 78 84 98
-0.596941 -0.796652 7.837804 17 8 13
-0.603802 -0.509961 7.946257 157 155 161
-0.598971 -0.491105 7.906259 159 156 158
-0.595112 -0.461463 7.872318 167 165 170
-0.592654 -0.518349 7.949185 54 79 110
-0.589945 -0.550173 7.998301 153 151 158
-0.586386 -0.529835 7.986901 162 161 159
-0.615027 -0.717217 8.383323 51 69 100
-0.615027 -0.717217 8.383323 51 69 100
-0.577789 -0.490713 7.954118 152 151 153
-0.579423 -0.528592 8.003827 58 72 88
-0.579423 -0.528592 8.003827 58 72 88
-0.575886 -0.502294 7.960834 64 76 97
-0.573654 -0.479814 7.944464 62 79 113
-0.577660 -0.603549 8.025273 143 133 132
-0.582313 -0.579726 8.145589 153 151 155
-0.578932 -0.750881 8.123524 120 106 105
-0.566571 -0.467326 7.966709 159 158 157
-0.562197 -0.482330 7.955586 165 164 176
-0.574541 -0.630737 8.148598 150 142 144
0.570345 0.565670 4.368721 53 58 63
-0.562935 -0.518790 8.048871 162 160 159
-0.564533 -0.745177 8.102273 137 127 129
-0.545390 -0.488987 7.982629 167 165 167
-0.545390 -0.488987 7.982629 167 165 167
-0.547688 -0.509521 8.022890 163 160 161
-0.544663 -0.704181 8.070983 89 58 63
-0.531265 -0.502615 8.052411 165 168 162
-0.528913 -0.511625 8.081579 68 80 100
-0.519881 -0.492593 8.111481 162 161 157
-0.516422 -0.510182 8.135562 64 82 105
-0.483458 0.581818 7.625313 107 102 92
-0.531067 -0.722257 8.381367 126 108 111
-0.521093 -0.528609 8.225437 140 136 144
-0.524803 -0.732723 8.349073 138 115 123
-0.509349 -0.496520 8.116023 67 81 108
-0.505238 -0.475225 8.082903 154 153 159
-0.517872 -0.744367 8.336250 138 125 126
-0.511710 -0.850346 8.409460 99 80 77
-0.511710 -0.850346 8.409460 99 80 77
-0.482095 -0.462360 8.130632 25 17 18
-0.482183 -0.473800 8.143922 166 162 162
0.551118 0.577069 4.316810 100 119 126
-0.464271 -0.788423 8.318461 29 19 18
0.543159 0.624028 4.267950 31 34 38
-0.427180 -0.459756 8.380891 32 19 17
-0.427180 -0.459756 8.380891 32 19 17
0.541009 0.577828 4.272948 62 82 91
0.535539 0.582482 4.257546 34 48 48
0.526404 0.583815 4.274825 47 63 69
0.518371 0.585444 4.290785 44 58 58
0.492038 0.658063 4.314671 120 83 93
0.490815 0.593189 4.356161 38 50 53
0.485866 0.659577 4.319889 62 43 61
0.483293 0.660304 4.309003 139 97 113
0.483293 0.660304 4.309003 139 97 113
0.483293 0.660304 4.309003 139 97 113
0.491842 0.585040 4.394969 101 118 116
0.482243 0.595204 4.369735 29 42 60
0.483382 0.585755 4.389241 174 176 175
-0.069288 0.641015 5.706536 82 69 49
-0.051651 0.640699 5.734571 134 124 91
-0.040327 0.647569 5.421142 168 158 135
0.470596 0.590825 4.427342 98 114 127
-0.035998 0.638311 5.720201 28 25 9
0.464870 0.595562 4.414881 78 98 107
-0.022351 0.649600 5.413177 34 37 20
-0.020258 0.662299 5.399365 135 123 106
-0.020258 0.662299 5.399365 135 123 106
-0.038265 -1.030498 11.934794 10 8 11
-0.017615 0.668651 5.397550 26 23 11
-0.029726 -0.837277 11.443490 21 28 44
-0.013672 0.646890 5.514637 42 34 21
-0.007397 0.654453 5.442780 106 104 90
-0.007397 0.654453 5.442780 106 104 90
-0.002657 0.667225 5.441331 25 23 13
-0.002657 0.667225 5.441331 25 23 13
0.004624 0.661607 5.499728 41 36 25
0.013987 0.647167 5.558746 164 161 131
0.013987 0.647167 5.558746 164 161 131
0.058297 0.651851 5.134346 161 107 115
0.071110 0.650430 5.262342 153 116 120
0.071110 0.650430 5.262342 153 116 120
0.395799 0.605141 4.567840 69 88 89
0.399953 0.594032 4.644582 176 177 176
0.380976 0.597342 4.601956 84 102 110
0.376097 0.604755 4.606562 59 84 89
0.374541 0.604849 4.627905 167 170 168
0.165705 0.666216 4.865687 92 105 106
0.350364 0.583928 4.786326 45 61 60
0.344667 0.587288 4.775525 61 80 85
0.335378 0.591320 4.794699 176 181 180
0.325169 0.610661 4.716955 145 154 155
0.320515 0.614245 4.736607 35 51 59
0.323276 0.587505 4.775345 54 64 66
0.318758 0.613674 4.717350 24 33 41
0.320207 0.600132 4.738903 156 163 162
0.231068 0.588377 5.011228 152 157 156
0.230463 0.592673 4.998278 26 34 42
0.310835 0.603712 4.759552 46 56 56
0.239876 0.585723 4.963393 31 41 40
0.246060 0.585928 4.968962 74 89 93
0.246060 0.585928 4.968962 74 89 93
0.251089 0.576008 4.967224 90 100 108
0.251089 0.576008 4.967224 90 100 108
0.255527 0.569172 4.976376 88 97 108
-0.828896 -0.758058 6.722405 43 17 29
-0.797218 -1.025930 7.575273 19 22 39
