ply
format ascii 1.0
element vertex 790
property float x
property float y
property float z
property uchar red
property uchar green
property uchar blue
end_header
-3.107386 0.959092 5.267876 24 22 18
-2.201315 -3.355047 4.037576 81 72 65
-2.201315 -3.355047 4.037576 81 72 65
-1.796097 -3.318533 3.860232 209 209 206
-1.785210 -3.316025 3.866934 92 84 80
-1.762246 -3.339636 3.842387 248 249 251
-1.736240 -3.278455 3.859208 209 201 195
-1.693781 -3.259494 3.828634 246 245 243
-1.707005 -1.780034 4.681701 203 173 171
-1.645576 -1.812964 4.656555 255 255 255
-1.653370 -0.709714 4.955618 39 27 27
-1.584801 -1.519540 4.851768 125 54 76
-1.671995 -0.875299 5.142141 157 149 155
-1.590733 -1.491120 4.908781 40 11 29
-1.736542 -1.265293 5.359532 112 114 125
-1.736542 -1.265293 5.359532 112 114 125
-1.735270 -1.280111 5.368780 15 13 27
-1.732351 -0.980734 5.364813 156 153 162
-1.746107 -1.205799 5.430356 20 18 29
-1.608238 -1.365436 5.034656 125 96 92
-1.578259 -1.475980 4.964940 117 51 69
-1.707410 -1.263529 5.382726 70 70 83
-1.719467 -1.174831 5.432559 134 122 125
-1.685419 -1.310606 5.326375 81 72 83
-1.581226 -1.420124 5.010139 33 16 31
-1.715473 -1.056025 5.443254 151 145 152
-1.699618 -0.937547 5.401824 46 19 28
-1.689617 -1.242329 5.374114 16 16 25
-1.680585 -1.265331 5.361080 26 24 35
-1.664859 -1.314637 5.320448 33 21 31
-1.673556 -1.250988 5.375613 137 125 134
-1.570265 -1.378455 5.047380 26 12 27
-1.709376 -0.834699 5.528628 35 16 22
-1.709376 -0.834699 5.528628 35 16 22
-1.562988 -1.433396 5.063511 43 17 29
-1.666239 -1.201361 5.400986 140 137 140
-1.685265 -1.013161 5.463386 151 144 151
-1.676555 -1.049061 5.443906 122 121 127
-1.554999 -1.393207 5.051636 109 54 75
-1.675882 -1.089628 5.469995 37 44 67
-1.670502 -0.953428 5.463405 45 47 56
-1.651342 -1.215129 5.416137 40 38 53
-1.537905 -1.401775 5.066421 37 13 27
-1.628541 -1.254886 5.372717 64 33 37
-1.657723 -1.015963 5.469040 119 119 129
-1.625312 -1.295669 5.365790 138 123 124
-1.529774 -1.488952 5.052912 41 4 15
-1.529774 -1.488952 5.052912 41 4 15
-1.656219 -1.094194 5.476117 142 141 146
-1.645694 -1.214850 5.442618 47 49 65
-1.643320 -1.200133 5.436925 112 115 125
-1.647857 -0.968841 5.453064 141 140 143
-1.604544 -1.300246 5.326726 74 47 51
-1.523213 -1.474176 5.058209 132 69 86
-1.527455 -1.537235 5.091695 145 104 122
-1.634591 -0.996459 5.455101 137 137 143
-1.631956 -0.902737 5.463941 110 104 107
-1.629600 -0.962791 5.462062 51 58 79
-1.622567 -0.746297 5.456172 64 58 48
-1.627186 -1.166602 5.473627 28 38 58
-1.618878 -1.052868 5.451535 138 137 139
-1.593081 -1.287560 5.370126 136 123 118
-1.593081 -1.287560 5.370126 136 123 118
-1.607890 -1.193554 5.423331 119 120 127
-1.607890 -1.193554 5.423331 119 120 127
-1.617247 -0.974641 5.460059 140 139 142
-1.500751 -1.525710 5.083766 38 19 31
-1.610348 -1.053982 5.459102 149 149 153
-1.608826 -0.948371 5.457384 144 143 149
-1.635615 -0.807967 5.556376 27 18 23
-1.616141 -0.851014 5.492993 48 42 53
-1.601617 -0.998647 5.446482 143 142 145
-1.512236 -1.373503 5.149316 23 8 19
-1.501484 -1.382431 5.125406 118 61 76
-1.602464 -0.888148 5.471787 31 33 44
-1.598281 -0.923787 5.461446 47 46 59
-1.590626 -1.019052 5.453352 159 157 163
-1.600684 -0.859443 5.490067 139 138 142
-1.483428 -1.572607 5.092909 118 73 88
-1.586464 -0.943433 5.464887 146 146 149
-1.480005 -1.535988 5.102382 117 70 88
-1.577066 -1.005939 5.448635 56 63 73
-1.583366 -0.869954 5.492660 48 59 79
-1.580598 -0.850771 5.492166 140 141 142
-1.572781 -0.867275 5.487280 140 140 146
-1.565013 -0.948313 5.464134 30 35 53
-1.555188 -1.001889 5.438231 170 170 171
-1.485564 -1.418326 5.208073 36 15 27
-1.553505 -1.367802 5.449047 20 9 16
-1.560563 -0.911786 5.480107 64 62 73
-1.455786 -1.536371 5.132358 82 44 61
-1.450476 -1.551100 5.131032 63 29 46
-1.545793 -0.963617 5.464824 66 77 96
-1.545793 -0.963617 5.464824 66 77 96
-1.535360 -1.814132 5.435726 51 51 69
-1.472989 -1.394927 5.211137 24 14 24
-1.471366 -1.520641 5.210312 28 5 18
-1.471366 -1.520641 5.210312 28 5 18
-1.547483 -0.891554 5.480374 162 163 165
-1.547562 -0.838257 5.504768 52 67 86
-1.547562 -0.838257 5.504768 52 67 86
-1.461955 -1.476133 5.220679 33 16 28
-1.461955 -1.476133 5.220679 33 16 28
-1.539494 -0.873010 5.498385 56 71 88
-1.456598 -1.430419 5.208738 135 109 116
-1.533794 -0.997211 5.482682 65 79 104
-1.538837 -1.052255 5.519591 69 80 94
-1.562444 -1.146606 5.660755 50 51 62
-1.516576 -0.794604 5.508350 28 15 21
-1.516311 -0.894077 5.515791 28 32 43
-1.516110 -0.829192 5.517919 121 123 129
-1.494708 -1.696963 5.452780 27 22 36
-1.494708 -1.696963 5.452780 27 22 36
-1.524098 -1.306147 5.569385 159 146 147
-1.510711 -1.023943 5.530802 58 74 99
-1.510711 -1.023943 5.530802 58 74 99
-1.503766 -0.852353 5.513246 64 78 100
-1.496500 -0.839530 5.521237 157 159 159
-1.458847 -1.044050 5.386375 115 116 119
-1.502041 -0.991781 5.551456 164 162 164
-1.531191 -1.121319 5.678426 113 111 114
-1.492481 -1.032674 5.589828 61 70 88
-1.492481 -1.032674 5.589828 61 70 88
-1.420667 -1.439168 5.333669 145 141 146
-1.453290 -1.680010 5.462970 18 23 39
-1.435547 -1.489356 5.400735 25 23 40
-1.435547 -1.489356 5.400735 25 23 40
-1.435547 -1.489356 5.400735 25 23 40
-1.470478 -0.865815 5.529392 38 40 49
-1.479689 -1.033268 5.601250 148 150 153
-1.482570 -0.989159 5.625613 161 160 157
-1.417966 -1.501355 5.392374 119 119 126
-1.403840 -1.424766 5.346171 130 125 131
-1.439632 -1.648193 5.485471 151 144 157
-1.472481 -1.014666 5.617544 65 69 83
-1.506639 -1.145265 5.750431 105 97 103
-1.407544 -1.492240 5.398498 27 27 48
-1.405374 -1.516732 5.402714 36 39 58
-1.405374 -1.516732 5.402714 36 39 58
-1.387594 -1.425831 5.357669 34 33 48
-1.387594 -1.425831 5.357669 34 33 48
-1.461195 -0.989928 5.649282 61 68 82
-1.461195 -0.989928 5.649282 61 68 82
-1.392548 -1.503756 5.398233 138 137 146
-1.392548 -1.503756 5.398233 138 137 146
-1.392548 -1.503756 5.398233 138 137 146
-1.451550 -0.980203 5.660789 163 162 166
-1.459169 -0.952994 5.699810 53 72 96
-1.380543 -1.493062 5.401909 29 30 49
-1.380543 -1.493062 5.401909 29 30 49
-1.370115 -1.425450 5.362794 157 155 164
-1.413053 -0.855712 5.531460 146 147 153
-1.369890 -1.410845 5.367059 21 18 29
-1.449895 -1.760299 5.691414 50 55 69
-1.371534 -1.457049 5.407143 132 130 141
-1.369476 -1.480986 5.406151 156 153 162
-1.369476 -1.480986 5.406151 156 153 162
-1.367809 -1.500916 5.402976 146 145 155
-1.443548 -0.953706 5.705408 155 154 159
-1.358404 -1.469603 5.413504 28 31 58
-1.417368 -1.265204 5.653198 95 57 66
-1.433387 -0.977460 5.723132 164 159 163
-1.344300 -1.456138 5.412110 147 144 156
-1.344300 -1.456138 5.412110 147 144 156
-1.344300 -1.456138 5.412110 147 144 156
-1.344348 -1.478640 5.416809 151 150 157
-1.480787 -1.131124 5.965806 155 147 145
-1.420068 -0.850013 5.720364 115 115 125
-1.425136 -0.952730 5.743680 55 67 87
-1.421227 -1.342609 5.753739 115 96 98
-1.452483 -1.161464 5.881995 138 128 124
-1.324524 -1.424178 5.398491 142 144 149
-1.439038 -1.138759 5.903607 153 138 138
-1.318235 -1.454344 5.413462 155 155 165
-1.536509 0.596657 6.308334 147 138 121
-1.310983 -1.427338 5.410456 27 32 51
-1.408903 -0.937511 5.830998 42 48 63
-1.298372 -1.431425 5.425797 158 161 167
-1.420484 -1.168841 5.950525 157 148 151
-1.420484 -1.168841 5.950525 157 148 151
-1.424762 -1.093962 5.976732 61 66 77
-1.410526 -1.135712 5.928676 140 128 130
-1.418821 -1.107757 5.991582 144 144 150
-1.383660 -1.208254 5.876943 130 124 135
-1.408444 -1.060762 5.983858 145 142 143
-1.370391 -1.368207 5.832748 120 105 106
-1.400937 -1.041461 5.991654 162 158 160
-1.361852 -1.386667 5.847267 95 79 88
-1.275499 -1.402505 5.482141 34 25 30
-1.358410 -1.291286 5.870957 56 68 92
-1.382464 -1.046157 5.974440 64 72 83
-1.370903 -1.222553 5.927713 150 141 149
-1.378718 -1.110824 5.988067 148 146 148
-1.360325 -1.246913 5.909769 145 142 153
-1.376559 -1.062509 5.984637 148 145 143
-1.376559 -1.062509 5.984637 148 145 143
-1.380613 -1.022490 6.004021 147 147 149
-1.379301 -0.939677 6.012061 151 147 150
-1.379301 -0.939677 6.012061 151 147 150
-1.359308 -1.189069 5.943358 126 125 130
-1.341078 -1.288846 5.879439 141 135 143
-1.341078 -1.288846 5.879439 141 135 143
-1.345541 -1.168232 5.930389 85 61 64
-1.357067 -1.020858 6.031422 153 152 154
-1.349542 -1.040226 6.023983 67 81 95
-1.349542 -1.040226 6.023983 67 81 95
-1.341226 -1.031057 6.025476 74 81 98
-1.357935 -1.138251 6.112624 38 32 40
-1.322678 -1.162097 6.013245 134 122 129
-1.322678 -1.162097 6.013245 134 122 129
-1.331445 -1.033224 6.060465 151 148 149
-1.324636 -1.059011 6.057520 66 69 80
-1.329509 -0.930743 6.135581 63 65 75
-1.294969 -0.931050 6.168324 100 98 101
-1.278282 -0.997839 6.146019 153 150 152
-1.436177 0.793833 6.921635 144 135 118
-1.282254 -1.047949 6.182134 54 57 64
-1.282254 -1.047949 6.182134 54 57 64
-1.260661 -0.973239 6.171123 165 165 173
-1.267051 -0.950215 6.205921 143 143 144
-1.262920 -0.913775 6.229866 159 154 158
-1.247643 -0.989184 6.182536 159 157 162
-1.252561 -0.938937 6.226200 59 88 124
-1.244774 -1.053209 6.209854 56 77 104
-1.244774 -1.053209 6.209854 56 77 104
-1.215736 -1.014790 6.198544 70 77 90
-1.144963 -1.673282 5.851244 32 22 20
-1.205372 -0.945267 6.270112 68 76 89
-1.205372 -0.945267 6.270112 68 76 89
-1.196122 -0.952288 6.269757 78 84 98
-1.188808 -0.985324 6.269039 159 156 158
-1.186115 -0.929700 6.267715 167 165 170
-1.119882 -0.972759 6.331539 165 164 176
-1.086682 -0.987136 6.355159 167 165 167
-1.086682 -0.987136 6.355159 167 165 167
-0.791670 1.502948 8.578796 80 73 57
-0.751973 1.549842 8.332707 28 25 10
-0.778239 -2.786719 9.290982 40 31 37
-0.778239 -2.786719 9.290982 40 31 37
-0.680389 1.498916 9.016841 79 68 44
-0.659463 1.500339 8.863433 73 64 46
-0.453528 1.570037 7.521445 75 67 54
-0.184851 1.594950 7.193836 48 43 30
-0.212611 1.532437 9.657123 29 26 16
-0.212611 1.532437 9.657123 29 26 16
-0.212611 1.532437 9.657123 29 26 16
-0.179094 1.571653 9.064567 104 91 63
-0.120419 1.596825 7.503184 47 41 25
-0.120419 1.596825 7.503184 47 41 25
-0.140946 1.576314 9.012501 108 94 68
-0.140946 1.576314 9.012501 108 94 68
-0.091518 1.604516 7.461103 37 34 22
-0.093324 1.590124 7.799063 89 82 66
-0.096866 1.566325 9.243606 23 23 19
-0.096866 1.566325 9.243606 23 23 19
0.022971 1.497055 10.675801 33 27 15
0.022971 1.497055 10.675801 33 27 15
0.103894 6.233305 25.827168 138 132 107
0.052868 1.143934 11.821057 130 119 97
0.114677 1.514435 10.479211 33 30 19
0.116436 1.584763 9.596157 91 85 69
0.133943 1.556651 10.256433 32 28 17
0.221576 1.593434 8.727873 40 37 24
0.241264 1.623619 7.550187 134 119 93
0.244819 1.621046 7.371321 32 28 12
0.233574 1.585628 5.738578 123 112 93
0.505639 1.488933 10.351060 51 48 46
0.505639 1.488933 10.351060 51 48 46
1.694991 9.838202 35.063435 97 91 81
0.334431 1.609527 6.630267 51 44 36
0.523147 1.648919 9.564712 34 27 14
0.331741 1.594613 5.921936 23 21 6
0.583743 1.347472 10.601215 13 11 14
0.437914 1.646818 7.709984 43 36 27
0.459624 1.637751 7.739653 110 102 81
0.372428 1.641019 5.943065 26 22 16
0.372428 1.641019 5.943065 26 22 16
0.654172 1.264434 10.463345 85 69 47
0.400979 1.612273 6.031458 29 24 10
0.538616 1.641811 8.067190 43 36 22
0.648829 1.687105 9.157239 32 25 11
0.358954 1.651759 4.793252 97 109 96
0.479718 1.629681 6.154605 18 17 10
0.806151 1.562066 10.332144 78 78 73
0.806151 1.562066 10.332144 78 78 73
0.437820 1.630285 5.470349 190 175 145
0.437820 1.630285 5.470349 190 175 145
0.502541 1.595679 6.287466 167 155 133
0.711983 1.664633 8.849742 43 35 22
0.514873 1.712691 6.191413 85 76 66
0.526514 1.605409 6.316303 44 37 24
0.540238 1.614525 6.294178 142 135 119
0.636583 1.633451 7.373053 31 25 15
0.908229 1.331967 10.443983 96 82 61
0.857290 1.696342 9.528617 35 30 18
0.728319 1.658165 7.923603 75 64 46
0.762192 1.633214 8.285566 32 27 11
0.784385 1.656936 8.275020 29 23 8
0.925389 1.702137 9.673668 25 23 14
0.637636 1.718521 6.395914 121 112 101
0.637636 1.718521 6.395914 121 112 101
0.647183 1.646238 6.468362 106 98 79
1.124842 1.252219 10.860923 50 47 35
1.079750 1.657549 10.289803 10 8 8
1.108392 1.637873 10.363670 66 66 62
1.118803 1.689621 10.358362 10 8 3
0.719558 1.640420 6.606885 17 17 9
0.726305 1.620595 6.605934 97 89 80
0.569070 1.506200 4.968709 22 28 38
1.197369 1.405285 10.498422 76 62 36
0.574363 1.461508 4.962773 152 157 156
0.573109 1.472536 4.950286 26 34 42
0.778941 1.706959 6.699534 107 95 77
0.784315 1.629584 6.746551 117 103 85
0.801331 1.747719 6.734006 31 25 13
0.801331 1.747719 6.734006 31 25 13
0.591802 1.482808 4.926806 30 35 42
0.591802 1.482808 4.926806 30 35 42
0.892969 1.620256 7.423950 43 37 21
0.596668 1.455918 4.918795 31 41 40
0.597874 1.518557 4.907945 46 54 64
0.750299 1.660219 6.153221 75 86 74
0.579472 1.731292 4.696186 44 55 61
0.612528 1.457774 4.930008 74 89 93
0.612528 1.457774 4.930008 74 89 93
0.855533 1.690802 6.855304 124 115 94
0.592140 1.749170 4.691523 58 68 73
0.624743 1.432840 4.928938 90 100 108
0.624743 1.432840 4.928938 90 100 108
0.776603 1.663092 6.087881 180 173 109
0.635666 1.415909 4.939887 88 97 108
0.896519 1.717121 6.926502 115 103 82
0.931157 1.619269 7.091022 40 38 26
9.551882 14.570700 70.731995 89 84 64
1.495482 1.267873 11.013371 80 71 66
0.846275 1.662873 6.174471 48 53 58
1.001921 1.662447 7.164981 36 33 24
1.448860 1.730675 10.360092 5 4 0
1.474708 1.731134 10.320257 8 9 7
1.332276 1.688631 9.296527 22 19 7
1.119414 1.668966 7.398227 30 22 10
1.117732 1.732072 7.339633 113 105 85
1.383639 1.716669 9.092285 84 78 59
1.138387 1.681870 7.421586 127 120 102
1.162561 1.692062 7.471562 21 18 10
1.169113 1.676317 7.498141 127 114 99
1.058581 1.683294 6.768838 63 47 53
0.759822 1.526338 4.776692 64 78 86
0.772694 1.545135 4.765761 11 16 21
1.254942 1.662864 7.685925 120 109 84
0.782270 1.518785 4.775637 46 56 56
1.246061 1.746324 7.599121 109 103 96
1.268500 1.641738 7.737850 42 35 20
1.268500 1.641738 7.737850 42 35 20
1.162401 1.697945 7.015528 134 83 88
1.307321 1.646692 7.886057 110 99 69
0.811193 1.480569 4.854061 94 110 120
0.806614 1.511345 4.760771 156 163 162
1.178546 1.694990 6.956794 52 53 65
0.803868 1.546731 4.741124 24 33 41
0.813739 1.478889 4.797951 54 64 66
0.808419 1.548343 4.762037 35 51 59
0.820580 1.540371 4.745594 145 154 155
1.697589 1.725376 9.781835 28 24 10
0.871362 1.427968 4.992576 37 39 44
0.818147 1.689687 4.672231 49 70 97
0.846308 1.492413 4.832027 176 181 180
1.425352 1.659621 8.116796 83 79 53
0.836094 1.552905 4.721925 52 68 70
0.853193 1.443408 4.809423 28 32 36
1.809540 1.649216 10.172622 45 44 40
1.449557 1.666124 8.086570 35 27 10
1.468840 1.668596 8.174306 127 112 96
1.324918 1.700546 7.362543 115 82 79
1.707734 1.728805 9.485767 79 72 55
0.870716 1.484025 4.819457 61 80 85
1.459538 1.726191 8.046272 22 20 10
1.482783 1.703539 8.146700 93 90 74
0.885695 1.476636 4.835426 45 61 60
0.891151 1.543615 4.831380 173 173 173
1.502838 1.690546 8.185163 24 22 9
1.502838 1.690546 8.185163 24 22 9
1.500370 1.740027 8.126553 79 76 65
1.500370 1.740027 8.126553 79 76 65
1.818946 1.737719 9.778406 29 26 21
0.878067 1.803368 4.539656 169 103 106
1.324983 1.716483 6.820445 53 51 53
1.979188 1.631900 10.181078 38 37 32
0.999482 1.474904 5.095342 87 101 108
0.817573 2.854527 4.131841 131 124 106
0.901625 1.719116 4.546618 86 91 80
0.997881 1.496594 5.037446 149 153 155
0.997881 1.496594 5.037446 149 153 155
2.055474 1.771977 10.359468 9 9 6
0.907350 1.750972 4.548753 143 139 108
1.483640 1.744560 7.435200 41 45 53
1.373069 1.726918 6.841961 39 48 59
0.915392 1.797840 4.549252 40 41 43
1.771091 1.697906 8.830749 31 25 12
1.007526 1.497951 5.004493 65 83 88
0.952034 1.537434 4.695643 167 170 168
2.075567 1.697463 10.264204 72 68 65
0.927222 1.729835 4.540465 129 105 95
0.955907 1.536876 4.672713 59 84 89
1.545915 1.733296 7.527041 47 50 55
0.847565 2.855492 4.094993 137 128 111
1.797527 1.772998 8.713260 115 98 83
0.980625 1.525680 4.743484 177 179 177
1.423378 1.737283 6.874435 124 95 92
0.968590 1.518734 4.671117 84 102 110
1.784793 1.802424 8.588794 42 36 35
1.967079 1.725918 9.451084 103 94 76
1.869167 1.722077 8.961824 22 15 6
0.994005 1.512146 4.748835 176 177 175
0.950525 1.811557 4.516851 163 88 91
1.858380 1.766453 8.842311 22 19 12
0.981016 1.558319 4.655788 24 32 36
0.958133 1.756858 4.537230 25 36 35
0.845361 2.859285 3.991482 84 77 61
1.901603 1.757672 9.004072 26 26 19
0.856438 2.859762 4.025493 155 148 136
1.739374 1.742066 8.208203 116 68 66
0.995202 1.536862 4.661852 24 40 45
1.020371 1.515939 4.735958 176 177 176
1.009367 1.543166 4.650542 69 88 89
1.016892 1.517784 4.664869 52 65 71
1.023103 1.525366 4.657526 88 105 113
1.023103 1.525366 4.657526 88 105 113
2.450275 1.586964 11.161958 90 83 71
1.050609 1.515545 4.703809 92 110 119
1.050046 1.513589 4.699072 92 110 119
2.153762 1.755481 9.631646 134 117 98
1.186576 1.493489 5.261082 32 43 44
2.648571 1.606448 11.566795 12 10 11
2.257125 1.747498 9.817339 16 13 5
1.607595 1.774593 6.965995 59 54 47
1.057750 1.695057 4.563952 48 68 93
2.668967 1.677661 11.444839 10 8 9
1.685314 1.779742 7.194283 51 44 55
2.305697 1.838640 9.796524 23 20 15
2.305697 1.838640 9.796524 23 20 15
2.812900 1.591103 11.926115 67 56 43
1.837220 1.786647 7.751879 129 95 90
2.340910 1.861459 9.859488 89 81 63
0.967602 2.870131 4.031992 151 141 130
1.068401 1.895360 4.413702 4 1 6
1.071938 1.884450 4.420890 63 76 82
1.048968 2.875530 4.241868 148 141 125
1.048968 2.875530 4.241868 148 141 125
2.671762 1.781210 10.747370 78 72 52
2.603195 0.827038 10.414200 24 13 11
1.998261 1.831820 7.988221 119 76 71
1.998261 1.831820 7.988221 119 76 71
1.160733 1.524125 4.632858 66 71 75
2.685122 1.841560 10.682692 30 24 11
2.841423 1.786589 11.309443 83 77 69
1.743745 1.783526 6.893776 107 87 82
1.971291 1.808135 7.763459 47 37 48
1.747973 1.786925 6.849111 53 45 47
1.067328 2.878219 4.151405 150 142 131
2.819972 1.823556 10.985498 109 99 92
1.982616 1.810344 7.689508 100 82 85
2.548817 1.867906 9.835608 37 33 27
1.196485 1.529776 4.563234 35 43 50
1.196485 1.529776 4.563234 35 43 50
3.005089 1.796731 11.474546 44 40 31
1.199117 1.536427 4.551045 78 98 107
1.732947 1.783042 6.540661 134 120 99
1.373283 1.521560 5.183674 22 28 34
1.395274 1.516758 5.256912 161 162 159
1.131612 2.879198 4.240404 152 149 134
1.214822 1.525395 4.569005 98 114 127
3.107610 1.853735 11.677777 106 97 83
3.158091 1.804816 11.791405 105 97 87
3.167901 1.802578 11.824708 103 95 85
1.255985 1.529109 4.653703 91 106 113
1.210774 2.892856 4.446473 151 146 135
1.114919 2.881923 4.071160 99 87 69
3.256617 1.879022 11.860434 26 22 10
1.250497 1.515629 4.540136 174 176 175
1.247581 1.539885 4.518030 29 42 60
1.852798 1.802543 6.680107 46 53 62
1.274703 1.516568 4.555625 101 118 116
1.256419 1.715729 4.468100 139 97 113
1.256419 1.715729 4.468100 139 97 113
1.256419 1.715729 4.468100 139 97 113
2.858189 1.895025 10.161704 42 37 36
1.271986 1.537481 4.512748 38 50 53
1.281603 1.713483 4.484315 120 83 93
2.450706 1.868872 8.510858 44 38 42
1.300341 1.541700 4.493179 90 101 111
1.245577 2.889139 4.277549 100 93 75
1.168757 2.893271 4.027606 139 132 116
3.500007 1.867908 12.036242 15 10 7
2.490124 1.880944 8.528121 39 38 45
1.914359 1.766762 6.388784 137 93 77
1.308676 1.880409 4.337430 85 104 113
1.349229 1.523792 4.465522 44 58 58
1.952448 1.764403 6.445801 35 34 42
1.327845 1.883316 4.370652 43 59 82
1.316490 2.897247 4.311083 162 155 140
1.316490 2.897247 4.311083 162 155 140
3.250388 1.770518 10.673227 134 127 113
2.706759 1.935956 8.787400 38 31 26
1.372132 1.521728 4.455788 47 63 69
1.966932 1.787901 6.342762 57 51 58
1.385489 2.906005 4.432702 139 134 116
3.218730 1.931229 10.324557 83 57 59
3.240555 1.956184 10.370461 86 62 61
3.240555 1.956184 10.370461 86 62 61
2.549982 1.915334 8.144972 48 43 44
1.399073 1.521827 4.448411 34 48 48
1.295351 2.902117 4.103093 83 74 56
1.415486 1.512113 4.472954 62 82 91
1.427386 1.640384 4.483446 31 34 38
1.298069 2.904972 4.074004 131 124 106
1.632800 1.560497 5.122955 8 18 18
1.446355 1.514878 4.535491 100 119 126
2.157682 1.838409 6.669794 62 56 69
1.453942 2.916023 4.465415 136 131 115
1.380786 2.907836 4.222925 90 83 67
1.502232 1.489896 4.610915 53 58 63
2.061302 1.812619 6.299769 72 65 72
1.448937 1.528475 4.434966 17 25 31
2.131596 1.840704 6.487567 120 102 82
1.489004 1.512406 4.535268 88 111 113
1.466007 1.523311 4.463742 35 44 49
1.496594 1.519461 4.512682 54 65 70
3.466598 1.926974 10.439081 20 21 21
3.450863 1.976801 10.375224 141 123 99
1.416863 2.910778 4.246912 146 138 124
2.302233 1.865812 6.894291 57 57 58
1.420781 2.916346 4.238723 79 72 54
2.189660 1.839623 6.471658 143 132 111
1.425918 2.913335 4.200923 156 149 133
1.470175 2.917917 4.326250 97 90 70
3.569941 2.018272 10.511772 34 29 30
3.569941 2.018272 10.511772 34 29 30
2.397413 1.885193 7.043715 52 52 49
1.529744 2.924115 4.461438 126 118 107
1.655668 1.507840 4.823079 92 108 109
1.484238 1.811708 4.320919 15 22 30
3.593340 1.928678 10.443748 30 16 11
2.983262 2.029814 8.645500 46 45 47
3.694454 1.892839 10.708149 43 37 34
1.398980 2.921404 4.051313 150 142 128
1.412974 2.920246 4.068628 145 138 122
1.502531 1.758182 4.327943 24 36 55
1.608197 1.513053 4.622657 25 29 30
1.608197 1.513053 4.622657 25 29 30
1.641263 1.502327 4.716288 24 28 34
1.654437 1.481048 4.758690 169 171 168
1.512754 1.777640 4.345503 89 103 103
1.511409 1.799527 4.334070 22 31 24
3.785339 1.908715 10.835835 39 32 23
1.510619 1.832055 4.320514 84 95 89
1.502518 1.883227 4.284408 173 159 87
3.762562 1.918305 10.692643 85 55 40
3.805159 1.904351 10.809288 133 118 87
3.805159 1.904351 10.809288 133 118 87
3.813120 1.886543 10.808271 139 123 88
2.484472 1.886923 7.021507 151 146 126
1.632203 2.932845 4.580434 81 73 59
1.719820 1.506221 4.829147 52 67 70
1.545166 1.812098 4.315522 163 161 105
3.779326 2.151636 10.521550 20 21 29
1.539378 1.822526 4.288244 80 97 78
1.734955 1.655470 4.822027 27 31 33
2.613887 1.936274 7.252155 130 131 117
1.547886 1.851776 4.280439 87 61 74
1.849331 1.473505 5.083733 162 167 171
3.267940 2.091995 8.890136 113 88 83
3.255496 2.078881 8.669031 50 37 37
2.799525 1.956434 7.363532 90 85 91
2.020266 1.787483 5.250204 80 91 75
3.095344 2.033861 8.032309 112 81 82
1.636681 1.906201 4.255655 3 3 4
1.653943 1.889076 4.259762 51 63 85
3.924462 2.217031 10.080455 117 101 97
3.924462 2.217031 10.080455 117 101 97
1.656737 2.948788 4.258673 92 84 63
2.369985 1.849259 6.051910 45 59 59
3.273711 2.079924 8.332401 47 45 51
3.567843 2.146731 9.071652 50 40 46
4.246554 2.251067 10.779726 15 10 10
4.613698 1.937962 11.718563 49 35 35
4.613698 1.937962 11.718563 49 35 35
1.651886 2.944690 4.182993 101 94 75
2.522670 1.874862 6.351776 57 51 56
2.544049 1.856273 6.395220 121 86 84
1.963543 1.751568 4.946228 42 43 42
2.331491 1.836142 5.865798 44 57 60
2.468009 1.858234 6.200110 170 149 125
2.390534 1.843097 5.967124 57 63 66
4.337946 2.222564 10.766829 67 68 58
2.651370 1.887890 6.537675 125 89 93
4.376279 2.264160 10.771535 10 8 8
2.632419 1.888515 6.458050 136 95 100
1.828615 2.963952 4.458688 81 75 55
1.772402 2.966078 4.323000 98 91 73
4.649762 2.110261 11.341558 98 68 75
2.360122 1.843531 5.728786 67 56 68
2.650758 1.894225 6.419308 130 92 91
4.565502 2.247998 11.018423 93 62 59
2.162855 1.790870 5.213047 41 49 64
1.738851 2.961570 4.165594 146 139 126
3.420846 2.079261 8.139350 101 78 81
2.100417 1.776747 4.983563 146 88 100
2.100417 1.776747 4.983563 146 88 100
4.601602 2.298866 10.838531 12 11 7
2.161025 1.781818 5.095371 56 63 80
1.836250 2.969952 4.315684 135 128 110
4.765475 2.370844 11.148444 13 11 10
4.765475 2.370844 11.148444 13 11 10
4.892013 2.166153 11.434421 95 64 73
4.892013 2.166153 11.434421 95 64 73
2.353395 1.801387 5.495157 186 178 126
3.328235 2.052885 7.704889 52 47 47
2.437743 1.803271 5.641315 55 58 69
2.313744 1.798096 5.354545 49 61 67
4.857680 2.390543 11.156690 9 1 1
2.575453 1.853096 5.917278 92 57 60
1.967738 2.985972 4.518368 20 13 7
1.936475 1.747695 4.452900 159 110 118
2.732543 1.885558 6.257720 62 69 81
1.929103 2.977620 4.408545 158 151 134
1.936360 2.976352 4.422472 81 73 54
1.936360 2.976352 4.422472 81 73 54
2.226496 1.775873 5.086046 181 174 135
1.956324 1.747384 4.474984 49 56 72
2.495385 1.822740 5.694614 196 178 148
1.812910 2.974396 4.123149 141 134 115
2.373367 1.814071 5.378031 154 152 137
2.373367 1.814071 5.378031 154 152 137
4.900632 2.378652 11.071923 21 19 24
1.862723 2.975752 4.218533 139 132 113
1.834893 2.977097 4.155587 159 152 136
3.746535 2.130109 8.443927 46 41 44
1.829187 2.977854 4.136442 87 81 60
1.829187 2.977854 4.136442 87 81 60
2.827671 1.892176 6.367456 89 92 76
3.833313 2.151392 8.606097 93 83 83
5.057746 2.377576 11.354221 141 125 102
1.881754 1.907240 4.234418 64 79 82
2.725689 1.869476 6.097755 58 62 71
2.447216 1.820235 5.476947 50 60 68
1.904941 2.982990 4.255761 148 144 125
5.111632 2.249257 11.354847 38 38 42
5.111632 2.249257 11.354847 38 38 42
5.020747 2.390060 11.112562 26 25 22
5.020747 2.390060 11.112562 26 25 22
2.589490 1.824933 5.733354 52 39 46
1.933628 2.988038 4.277462 135 129 112
5.358440 2.232451 11.831106 88 49 33
5.358440 2.232451 11.831106 88 49 33
1.897482 2.981129 4.200729 145 136 119
1.920398 1.928201 4.250374 70 81 85
1.920398 1.928201 4.250374 70 81 85
5.210796 2.301611 11.474731 34 34 37
5.529109 2.207253 12.155501 125 122 96
2.330464 1.789052 5.124598 74 63 69
5.189830 2.319102 11.375098 34 33 37
2.017102 1.762106 4.437855 149 107 109
3.182253 1.975397 6.966436 48 43 50
3.182253 1.975397 6.966436 48 43 50
3.685191 2.085881 8.068074 92 72 74
2.480386 1.826647 5.435957 56 60 64
2.403034 1.811746 5.260971 109 76 58
2.336689 1.798068 5.113436 51 53 69
3.214100 1.975645 7.017109 98 81 84
2.008441 2.993397 4.389640 125 118 102
6.107563 2.241090 13.303237 91 91 78
2.325369 1.783874 5.074245 57 55 66
1.931238 2.989897 4.213754 146 139 121
2.172475 1.771315 4.725471 188 181 140
2.321294 1.793433 5.039645 156 105 97
3.758351 2.091724 8.130927 103 75 77
6.104646 2.210004 13.206581 64 66 56
2.435242 1.806948 5.248198 75 46 54
2.876518 1.883426 6.189791 59 57 63
2.999419 1.915379 6.446591 71 71 59
1.978475 3.000722 4.215000 142 135 117
2.592164 1.868181 5.479105 149 85 80
2.592164 1.868181 5.479105 149 85 80
2.415904 1.798970 5.106336 165 94 88
5.623165 2.302158 11.827261 103 63 65
2.543134 1.810485 5.358192 155 95 85
2.009191 2.997792 4.228741 149 140 123
2.372892 1.799965 4.983313 61 57 46
4.921982 2.374633 10.303194 44 40 39
2.067174 3.000887 4.343111 142 135 117
2.341367 1.791006 4.908659 59 51 57
2.761133 1.848420 5.760458 98 99 95
5.336874 2.492797 11.093658 35 34 31
5.336874 2.492797 11.093658 35 34 31
3.376874 2.000074 7.020252 153 150 135
2.389869 1.801496 4.967804 69 62 70
3.229261 1.954466 6.674762 123 84 83
5.580202 2.380681 11.522481 94 55 56
5.580202 2.380681 11.522481 94 55 56
2.176564 3.014644 4.488709 116 109 93
2.860307 1.846089 5.895793 49 51 67
2.470368 1.804403 5.089787 160 90 85
2.470368 1.804403 5.089787 160 90 85
2.429553 1.804303 4.996832 162 105 93
3.218120 1.948530 6.598734 48 41 42
2.454460 1.806378 5.033076 80 49 52
3.746459 2.064531 7.652798 141 138 126
3.854441 2.088120 7.794178 53 53 56
2.110460 3.015856 4.265701 146 139 119
2.110460 3.015856 4.265701 146 139 119
2.614768 1.824415 5.257399 69 61 70
2.400339 1.815704 4.826982 47 53 61
2.524002 1.814768 5.073262 166 98 94
2.604037 1.827619 5.224393 59 59 67
2.408895 3.039248 4.815390 114 107 91
5.951551 2.447875 11.874193 93 59 49
5.951551 2.447875 11.874193 93 59 49
5.951551 2.447875 11.874193 93 59 49
2.393607 1.837581 4.788096 120 98 101
2.560029 1.831041 5.098372 79 66 75
2.491194 1.824790 4.958134 208 193 170
2.615506 1.827414 5.189918 56 41 54
2.543433 1.830897 5.046706 154 95 90
3.042444 1.877249 6.026006 71 64 71
3.042444 1.877249 6.026006 71 64 71
2.959656 1.850860 5.843064 61 49 58
2.578407 1.840994 5.062661 51 46 60
2.716753 1.841201 5.328808 155 85 73
2.716753 1.841201 5.328808 155 85 73
2.483190 1.893385 4.871258 118 81 91
2.202390 3.027214 4.317502 136 129 114
2.202390 3.027214 4.317502 136 129 114
2.202390 3.027214 4.317502 136 129 114
2.607310 1.852623 5.090272 54 52 57
2.668011 1.846574 5.199838 145 80 70
3.101094 1.869198 6.033478 164 160 92
2.720434 1.854862 5.291052 186 178 133
2.630906 1.887632 5.098387 172 158 124
2.630906 1.887632 5.098387 172 158 124
3.112728 1.901198 6.021038 62 60 66
2.846972 1.874807 5.487176 49 59 66
3.201488 1.899099 6.166157 168 166 111
3.105505 1.903239 5.957214 129 96 90
2.798728 1.876037 5.371407 49 61 65
2.644208 1.944610 5.068286 43 48 53
3.353824 1.930186 6.415051 168 169 129
9.647298 2.918624 18.433813 108 111 110
2.882449 1.907286 5.507897 59 70 74
3.337610 1.920985 6.358944 52 59 54
2.953075 1.893343 5.626577 153 95 96
3.306692 1.917940 6.293971 59 69 70
2.766547 1.927599 5.268785 46 56 62
2.311096 3.038597 4.405281 132 123 106
3.788829 2.017155 7.174265 104 88 89
2.655396 2.028529 5.035938 74 73 78
2.863204 1.912783 5.416737 174 168 134
2.341382 3.046266 4.415694 138 131 114
3.417443 1.938704 6.424174 49 57 62
2.725478 2.042799 5.131102 122 70 76
2.847975 1.928296 5.355605 42 49 54
2.794327 1.976273 5.255333 46 56 58
2.887575 1.971948 5.412544 46 56 60
2.964829 1.942162 5.556791 48 57 52
6.183569 2.566377 11.540460 3 0 2
2.772319 2.042141 5.187089 152 140 95
2.979897 1.953433 5.550828 172 160 114
2.896415 2.045830 5.363252 154 143 109
2.896415 2.045830 5.363252 154 143 109
2.894518 2.039380 5.356719 154 143 109
5.006888 2.251178 9.218996 37 41 44
5.006888 2.251178 9.218996 37 41 44
3.002363 2.015294 5.535088 50 44 48
2.971280 2.037596 5.465079 123 73 74
3.126041 2.018486 5.725545 148 108 100
3.699514 1.994689 6.741187 122 89 79
3.353127 2.023976 6.038743 85 88 84
3.692253 2.034797 6.639317 52 44 42
3.555083 2.027402 6.382700 34 29 31
3.477219 2.041551 6.240900 103 81 77
4.431211 2.122363 7.925917 34 30 27
3.523346 2.051502 6.302369 39 40 52
3.465361 2.067317 6.179258 93 82 86
2.534348 3.075275 4.499351 118 111 93
4.485346 2.148065 7.883836 34 27 24
4.853112 2.223490 8.485704 50 38 37
2.598951 3.080689 4.536447 118 111 93
2.594888 3.093945 4.440240 119 112 94
2.854952 3.114532 4.848950 112 104 91
2.677939 3.093703 4.517440 121 114 98
