ply
format ascii 1.0
element vertex 853
property float x
property float y
property float z
property uchar red
property uchar green
property uchar blue
end_header
-3.119784 0.965671 5.289501 24 22 18
-1.727428 -1.791085 4.731833 203 173 171
-1.666199 -1.825028 4.708274 255 255 255
-1.602154 -1.526052 4.898988 125 54 76
-1.785264 -1.139962 5.463396 119 120 128
-1.607876 -1.497228 4.955920 40 11 29
-1.752343 -1.268449 5.404442 112 114 125
-1.752343 -1.268449 5.404442 112 114 125
-1.751304 -1.283567 5.414413 15 13 27
-1.761292 -1.208153 5.474067 20 18 29
-1.624194 -1.369503 5.079541 125 96 92
-1.466373 -1.699325 4.600482 37 32 54
-1.594754 -1.481596 5.011380 117 51 69
-1.722809 -1.266546 5.427428 70 70 83
-1.734175 -1.176704 5.475495 134 122 125
-1.701050 -1.314175 5.371686 81 72 83
-1.596931 -1.424635 5.054914 33 16 31
-1.704577 -1.244917 5.417916 16 16 25
-1.680300 -1.318176 5.365651 33 21 31
-1.688534 -1.253710 5.419802 137 125 134
-1.585590 -1.382383 5.091689 26 12 27
-1.579022 -1.438466 5.110063 43 17 29
-1.680652 -1.203360 5.443960 140 137 140
-1.698081 -1.012826 5.501882 151 144 151
-1.689752 -1.049172 5.483466 122 121 127
-1.570468 -1.397457 5.096700 109 54 75
-1.689287 -1.090217 5.510465 37 44 67
-1.562039 -1.487356 5.100023 117 64 81
-1.665728 -1.217296 5.459510 40 38 53
-1.553223 -1.406102 5.111650 37 13 27
-1.663731 -1.177899 5.477160 138 145 163
-1.643093 -1.257499 5.416685 64 33 37
-1.670316 -1.015579 5.507463 119 119 129
-1.640216 -1.298884 5.410798 138 123 124
-1.545857 -1.494798 5.100403 41 4 15
-1.545857 -1.494798 5.100403 41 4 15
-1.669533 -1.094813 5.516758 142 141 146
-1.660110 -1.217094 5.486418 47 49 65
-1.657488 -1.202093 5.480029 112 115 125
-1.659972 -0.967857 5.490118 141 140 143
-1.619373 -1.303452 5.371595 74 47 51
-1.539195 -1.479824 5.105594 132 69 86
-1.543835 -1.543938 5.140588 145 104 122
-1.646836 -0.995757 5.492817 137 137 143
-1.641538 -0.961709 5.498990 51 58 79
-1.640797 -1.168042 5.515803 28 38 58
-1.631520 -1.052814 5.490715 138 137 139
-1.607599 -1.290555 5.414803 136 123 118
-1.607599 -1.290555 5.414803 136 123 118
-1.621571 -1.195224 5.465694 119 120 127
-1.621571 -1.195224 5.465694 119 120 127
-1.629110 -0.973616 5.497012 140 139 142
-1.581107 -1.417621 5.350137 37 26 32
-1.516726 -1.532087 5.132123 38 19 31
-1.622756 -1.053837 5.497885 149 149 153
-1.620338 -0.946990 5.493432 144 143 149
-1.626503 -0.848522 5.525824 48 42 53
-1.613519 -0.997811 5.483773 143 142 145
-1.526952 -1.377360 5.194310 23 8 19
-1.613204 -0.886029 5.505788 31 33 44
-1.609428 -0.922077 5.496635 47 46 59
-1.602734 -1.018497 5.491490 159 157 163
-1.499698 -1.579880 5.142717 118 73 88
-1.597819 -0.941973 5.500903 146 146 149
-1.496018 -1.542665 5.151571 117 70 88
-1.588867 -1.005136 5.486095 56 63 73
-1.593929 -0.867677 5.526536 48 59 79
-1.590923 -0.848267 5.525369 140 141 142
-1.576070 -0.946758 5.499701 30 35 53
-1.581245 -0.903457 5.518762 76 82 93
-1.566611 -1.000868 5.474944 170 170 171
-1.500679 -1.423170 5.255474 36 15 27
-1.568216 -1.371986 5.496157 20 9 16
-1.573272 -1.945617 5.528666 29 30 48
-1.573272 -1.945617 5.528666 29 30 48
-1.471336 -1.542862 5.181258 82 44 61
-1.581196 -1.086417 5.580256 53 71 95
-1.466153 -1.557894 5.180443 63 29 46
-1.556827 -0.962176 5.500692 66 77 96
-1.556827 -0.962176 5.500692 66 77 96
-1.553290 -1.826147 5.493623 51 51 69
-1.487734 -1.399307 5.257782 24 14 24
-1.563522 -1.922480 5.536585 30 29 49
-1.487196 -1.527249 5.260380 28 5 18
-1.487196 -1.527249 5.260380 28 5 18
-1.557780 -0.889292 5.514052 162 163 165
-1.557215 -1.938086 5.534003 107 107 117
-1.548302 -1.841835 5.506155 117 111 119
-1.557415 -0.835497 5.537191 52 67 86
-1.557415 -0.835497 5.537191 52 67 86
-1.552197 -1.957320 5.539697 28 30 58
-1.476952 -1.481639 5.268687 33 16 28
-1.476952 -1.481639 5.268687 33 16 28
-1.553300 -1.904500 5.548879 27 28 50
-1.549532 -0.870542 5.531525 56 71 88
-1.538265 -1.852850 5.499347 35 32 56
-1.471252 -1.435170 5.255634 135 109 116
-1.545080 -0.996183 5.519702 65 79 104
-1.550529 -1.051916 5.558165 69 80 94
-1.537453 -1.967416 5.525091 81 81 101
-1.529408 -1.733645 5.499115 35 27 52
-1.537520 -1.903314 5.557634 121 117 131
-1.453297 -1.478293 5.256971 104 64 72
-1.575009 -1.147724 5.702909 50 51 62
-1.522175 -1.770393 5.524604 33 35 56
-1.525763 -0.791305 5.539205 28 15 21
-1.521585 -1.960989 5.533760 31 35 57
-1.526364 -0.891790 5.549518 28 32 43
-1.525643 -0.826263 5.549947 121 123 129
-1.516282 -1.785784 5.526877 109 110 121
-1.511333 -1.706644 5.507958 27 22 36
-1.511333 -1.706644 5.507958 27 22 36
-1.520093 -1.944243 5.556251 17 21 39
-1.537627 -1.309232 5.614837 159 146 147
-1.522294 -1.898245 5.568138 28 29 48
-1.511695 -1.851254 5.530740 119 117 127
-1.521799 -1.023117 5.568158 58 74 99
-1.521799 -1.023117 5.568158 58 74 99
-1.513347 -0.849583 5.545646 64 78 100
-1.515800 -1.926160 5.568851 24 26 47
-1.469797 -1.043121 5.423148 115 116 119
-1.512807 -0.990593 5.588079 164 162 164
-1.495798 -1.792165 5.536817 115 113 128
-1.488746 -1.703338 5.510379 33 34 53
-1.543305 -1.122055 5.719952 113 111 114
-1.497670 -1.952947 5.565668 41 39 60
-1.503501 -1.032001 5.627811 61 70 88
-1.503501 -1.032001 5.627811 61 70 88
-1.434778 -1.443988 5.381273 145 141 146
-1.491253 -1.908695 5.602086 109 109 119
-1.491253 -1.908695 5.602086 109 109 119
-1.469334 -1.689267 5.517708 18 23 39
-1.450154 -1.495167 5.450314 25 23 40
-1.450154 -1.495167 5.450314 25 23 40
-1.450154 -1.495167 5.450314 25 23 40
-1.479197 -1.771784 5.571542 28 30 51
-1.498349 -1.038660 5.657705 149 148 153
-1.490453 -1.032495 5.638822 148 150 153
-1.469730 -1.953455 5.572775 108 107 121
-1.460621 -1.693916 5.536175 133 134 148
-1.460621 -1.693916 5.536175 133 134 148
-1.477275 -1.906235 5.609192 19 22 39
-1.432454 -1.507275 5.442018 119 119 126
-1.456489 -1.674897 5.536100 34 31 48
-1.417638 -1.429291 5.393365 130 125 131
-1.455252 -1.656821 5.539499 151 144 157
-1.483018 -1.013668 5.654631 65 69 83
-1.463358 -1.940805 5.587605 33 35 56
-1.518528 -1.146238 5.792518 105 97 103
-1.421808 -1.497943 5.447793 27 27 48
-1.421808 -1.497943 5.447793 27 27 48
-1.454770 -1.742055 5.579208 139 136 145
-1.457116 -1.924008 5.593509 117 117 129
-1.445219 -1.677471 5.549718 142 137 144
-1.419785 -1.522846 5.452642 36 39 58
-1.419785 -1.522846 5.452642 36 39 58
-1.450342 -1.946502 5.586657 117 115 126
-1.401241 -1.430344 5.404944 34 33 48
-1.401241 -1.430344 5.404944 34 33 48
-1.450477 -1.910460 5.607834 32 36 58
-1.471483 -0.988683 5.685971 61 68 82
-1.471483 -0.988683 5.685971 61 68 82
-1.448471 -1.791479 5.603495 25 27 37
-1.444738 -1.933149 5.600259 30 30 40
-1.406744 -1.509608 5.447762 138 137 146
-1.406744 -1.509608 5.447762 138 137 146
-1.406744 -1.509608 5.447762 138 137 146
-1.452277 -1.860436 5.647047 20 23 39
-1.493412 -1.129154 5.801368 66 56 58
-1.461491 -0.978732 5.696663 163 162 166
-1.425743 -1.915068 5.568996 103 101 115
-1.469020 -0.951348 5.735462 53 72 96
-1.394546 -1.498706 5.451172 29 30 49
-1.394546 -1.498706 5.451172 29 30 49
-1.383554 -1.429885 5.409944 157 155 164
-1.438972 -1.882667 5.635329 19 24 45
-1.421616 -0.852543 5.562360 146 147 153
-1.383244 -1.415068 5.413944 21 18 29
-1.432717 -1.904417 5.622934 34 37 52
-1.432717 -1.904417 5.622934 34 37 52
-1.433741 -1.867876 5.646754 130 129 136
-1.385227 -1.462104 5.455616 132 130 141
-1.383255 -1.486377 5.455031 156 153 162
-1.381662 -1.506589 5.452176 146 145 155
-1.453161 -0.951963 5.740654 155 154 159
-1.423431 -1.849865 5.649994 36 38 51
-1.421226 -1.875941 5.651901 27 26 46
-1.421226 -1.875941 5.651901 27 26 46
-1.371977 -1.474771 5.462083 28 31 58
-1.422532 -1.839285 5.673995 128 122 135
-1.429404 -1.267365 5.697240 95 57 66
-1.442984 -0.975910 5.758746 164 159 163
-1.357624 -1.461023 5.460230 147 144 156
-1.357624 -1.461023 5.460230 147 144 156
-1.357624 -1.461023 5.460230 147 144 156
-1.357863 -1.483938 5.465657 151 150 157
-1.492187 -1.132116 6.008764 155 147 145
-1.428425 -0.847026 5.751799 115 115 125
-1.434380 -0.950866 5.778393 55 67 87
-1.406519 -1.872203 5.675820 34 35 61
-1.410394 -1.811218 5.705401 137 138 146
-1.433844 -1.346084 5.800800 115 96 98
-1.463673 -1.162483 5.924301 138 128 124
-1.433903 -1.738467 5.812209 31 29 41
-1.401628 -1.858827 5.691163 128 128 141
-1.401628 -1.858827 5.691163 128 128 141
-1.405118 -1.797099 5.723481 22 21 37
-1.405118 -1.797099 5.723481 22 21 37
-1.337445 -1.428464 5.445602 142 144 149
-1.397453 -1.845216 5.701920 25 27 42
-1.371491 -1.518422 5.592071 96 100 113
-1.449881 -1.139442 5.945187 153 138 138
-1.331303 -1.459133 5.461483 155 155 165
-1.533031 0.600648 6.297245 147 138 121
-1.340468 -1.410273 5.505310 33 22 29
-1.401517 -1.748878 5.766265 27 26 40
-1.401517 -1.748878 5.766265 27 26 40
-1.411615 -1.723104 5.811940 89 89 100
-1.323834 -1.431689 5.457836 27 32 51
-1.386660 -1.843325 5.730815 38 41 59
-1.386660 -1.843325 5.730815 38 41 59
-1.417974 -0.935616 5.866011 42 48 63
-1.387148 -1.818783 5.759237 27 31 48
-1.387148 -1.818783 5.759237 27 31 48
-1.390425 -1.806822 5.776634 114 113 123
-1.311056 -1.435770 5.473171 158 161 167
-1.373805 -1.839696 5.753211 24 26 47
-1.431376 -1.169922 5.993196 157 148 151
-1.431376 -1.169922 5.993196 157 148 151
-1.434966 -1.094055 6.016973 61 66 77
-1.373736 -1.827661 5.770976 128 127 134
-1.373736 -1.827661 5.770976 128 127 134
-1.383658 -1.790349 5.816278 40 38 60
-1.383658 -1.790349 5.816278 40 38 60
-1.421073 -1.136286 5.970097 140 128 130
-1.429097 -1.108037 6.032364 144 144 150
-1.394548 -1.209620 5.919938 130 124 135
-1.418192 -1.060369 6.022839 145 142 143
-1.360701 -1.822417 5.792761 130 127 134
-1.382537 -1.371914 5.880479 120 105 106
-1.410659 -1.040936 6.030653 162 158 160
-1.374086 -1.390687 5.895733 95 79 88
-1.287568 -1.406250 5.528624 34 25 30
-1.369678 -1.293716 5.916119 56 68 92
-1.391807 -1.045438 6.012446 64 72 83
-1.381732 -1.224126 5.971324 150 141 149
-1.388530 -1.110903 6.028131 148 146 148
-1.371295 -1.248796 5.954044 145 142 153
-1.386034 -1.062015 6.023353 148 145 143
-1.386034 -1.062015 6.023353 148 145 143
-1.390007 -1.021685 6.042335 147 147 149
-1.358014 -1.378565 5.908413 130 115 123
-1.387865 -0.937857 6.047291 151 147 150
-1.387865 -0.937857 6.047291 151 147 150
-1.351158 -1.347228 5.904679 143 130 135
-1.369775 -1.190168 5.986005 126 125 130
-1.352160 -1.291189 5.924468 141 135 143
-1.352160 -1.291189 5.924468 141 135 143
-1.355696 -1.168957 5.972079 85 61 64
-1.341248 -1.367282 5.922396 86 59 61
-1.339137 -1.335116 5.923024 60 33 51
-1.366179 -1.019954 6.069452 153 152 154
-1.327130 -1.346918 5.919581 136 121 126
-1.358677 -1.039473 6.062283 67 81 95
-1.358677 -1.039473 6.062283 67 81 95
-1.350029 -1.030053 6.062783 74 81 98
-1.368174 -1.139087 6.155754 38 32 40
-1.314648 -1.353038 5.935123 85 55 60
-1.332490 -1.162742 6.054967 134 122 129
-1.332490 -1.162742 6.054967 134 122 129
-1.340383 -1.032391 6.098696 151 148 149
-1.333530 -1.058342 6.095860 66 69 80
-1.304819 -1.311196 5.996210 52 62 89
-1.337407 -0.928752 6.170268 63 65 75
-1.293861 -1.365805 5.995455 90 57 63
-1.279321 -1.344643 5.983713 146 136 136
-1.279321 -1.344643 5.983713 146 136 136
-1.302600 -0.928994 6.202911 100 98 101
-1.304467 -1.023318 6.220213 36 36 43
-1.286281 -0.996409 6.182451 153 150 152
-1.290616 -1.047149 6.220375 54 57 64
-1.290616 -1.047149 6.220375 54 57 64
-1.255414 -1.362875 6.106477 152 139 142
-1.255414 -1.362875 6.106477 152 139 142
-1.194268 -1.736410 5.831515 19 17 18
-1.251569 -1.426190 6.106368 122 105 111
-1.268364 -0.971530 6.206856 165 165 173
-1.274529 -0.948280 6.240843 143 143 144
-1.214567 -1.564223 5.983389 8 4 8
-1.184732 -1.713984 5.847594 24 22 26
-1.184732 -1.713984 5.847594 24 22 26
-1.217903 -1.558490 6.011819 14 9 13
-1.270079 -0.911475 6.263643 159 154 158
-1.187352 -1.665484 5.867616 26 23 22
-1.255340 -0.987611 6.218680 159 157 162
-1.231497 -1.419311 6.124131 132 120 128
-1.259799 -0.936838 6.260580 59 88 124
-1.252790 -1.052331 6.247846 56 77 104
-1.252790 -1.052331 6.247846 56 77 104
-1.266139 -1.132909 6.330215 37 41 52
-1.218095 -1.394193 6.129382 142 131 132
-1.218095 -1.394193 6.129382 142 131 132
-1.159595 -1.673699 5.910413 20 13 17
-1.223302 -1.013376 6.235107 70 77 90
-1.222441 -1.156120 6.272624 138 126 127
-1.222441 -1.156120 6.272624 138 126 127
-1.139469 -1.749544 5.883770 13 11 14
-1.139469 -1.749544 5.883770 13 11 14
-1.171250 -1.538450 6.070227 101 82 82
-1.206129 -1.064617 6.248493 149 147 148
-1.212177 -0.943066 6.304074 68 76 89
-1.212177 -0.943066 6.304074 68 76 89
-1.202985 -0.950173 6.304152 78 84 98
-1.148428 -1.541355 6.028976 17 8 13
-1.195848 -0.983537 6.304472 159 156 158
-1.192797 -0.927341 6.301431 167 165 170
-1.188637 -1.160609 6.366435 82 77 82
-1.179704 -1.035815 6.320564 54 79 110
-1.169638 -1.095822 6.335430 153 151 158
-1.165866 -1.058118 6.343758 162 161 159
-1.155012 -0.984991 6.351280 152 151 153
-1.152718 -1.056581 6.361158 58 72 88
-1.152718 -1.056581 6.361158 58 72 88
-1.149555 -1.007044 6.347977 64 76 97
-1.148549 -0.964601 6.353445 62 79 113
-1.138942 -1.196529 6.322752 143 133 132
-1.150942 -1.152471 6.433014 153 151 155
-1.120274 -1.463061 6.285962 120 106 105
-1.136563 -0.941554 6.383541 159 158 157
-1.128976 -1.012332 6.371643 167 163 162
-1.126276 -0.970664 6.366128 165 164 176
-1.128629 -1.246981 6.397885 150 142 144
-1.121592 -1.039411 6.407770 162 160 159
-1.093971 -1.454379 6.278907 137 127 129
-1.093075 -0.985217 6.390702 167 165 167
-1.093075 -0.985217 6.390702 167 165 167
-1.094062 -1.023668 6.403100 163 160 161
-1.061959 -1.383037 6.292718 89 58 63
-1.063289 -1.012377 6.439113 165 168 162
-1.057406 -1.029712 6.455733 68 80 100
-1.049724 -1.042497 6.483209 159 155 158
-1.041491 -0.994008 6.494028 162 161 157
-1.033314 -1.028414 6.504763 64 82 105
-1.039599 -1.062942 6.558213 140 136 144
-1.021252 -1.003012 6.502402 67 81 108
-1.015643 -0.962425 6.492763 154 153 159
-0.972414 -0.940462 6.552829 25 17 18
-0.970694 -0.962066 6.551864 166 162 162
-0.863576 -0.940825 6.772722 32 19 17
-0.863576 -0.940825 6.772722 32 19 17
-0.792080 -2.834750 9.458652 40 31 37
-0.792080 -2.834750 9.458652 40 31 37
-0.676811 1.493217 8.970152 79 68 44
-0.655559 1.494026 8.812955 73 64 46
-0.210635 1.523419 9.586991 29 26 16
-0.210635 1.523419 9.586991 29 26 16
-0.210635 1.523419 9.586991 29 26 16
-0.177095 1.560814 8.986668 104 91 63
-0.139070 1.564555 8.929606 108 94 68
-0.139070 1.564555 8.929606 108 94 68
-0.091245 1.574424 7.703739 89 82 66
-0.095474 1.555097 9.161810 23 23 19
-0.095474 1.555097 9.161810 23 23 19
0.023289 1.489173 10.608537 33 27 15
0.023289 1.489173 10.608537 33 27 15
0.053265 1.142228 11.794715 130 119 97
0.114398 1.505138 10.401900 33 30 19
0.115940 1.572333 9.505059 91 85 69
0.133412 1.546182 10.173843 32 28 17
0.219781 1.576500 8.616281 40 37 24
0.238757 1.602016 7.430283 134 119 93
0.242214 1.598621 7.249928 32 28 12
0.242214 1.598621 7.249928 32 28 12
0.501448 1.476231 10.244231 51 48 46
0.501448 1.476231 10.244231 51 48 46
0.579196 1.336701 10.494802 13 11 14
0.453042 1.613380 7.604302 110 102 81
0.235311 2.768893 3.829898 85 78 62
0.649021 1.255279 10.361059 85 69 47
0.530722 1.617597 7.927714 43 36 22
0.640233 1.665567 9.021138 32 25 11
0.797136 1.545309 10.201288 78 78 73
0.797136 1.545309 10.201288 78 78 73
0.701388 1.640391 8.700593 43 35 22
0.625318 1.604537 7.221852 31 25 15
0.898470 1.318766 10.313262 96 82 61
0.351224 2.773272 3.860265 79 71 58
0.844866 1.672699 9.376307 35 30 18
0.355548 2.775763 3.885809 130 122 109
0.749422 1.606686 8.129180 32 27 11
0.770961 1.629484 8.116590 29 23 8
0.911703 1.677948 9.516680 25 23 14
0.618132 1.569070 6.336037 91 84 65
0.399253 2.781885 3.776555 88 81 66
1.064344 1.634913 10.129145 10 8 8
1.092950 1.616311 10.206366 66 66 62
1.102679 1.666379 10.196271 10 8 3
0.704417 1.605858 6.448526 17 17 9
0.710949 1.586260 6.446363 97 89 80
1.181658 1.388604 10.345719 76 62 36
0.761780 1.669341 6.534159 107 95 77
0.767377 1.594736 6.582367 117 103 85
0.469095 2.770635 3.991179 129 120 110
0.783337 1.708431 6.565791 31 25 13
0.783337 1.708431 6.565791 31 25 13
0.874327 1.587585 7.252220 43 37 21
0.836256 1.653237 6.684261 124 115 94
0.875829 1.678038 6.750594 115 103 82
0.529585 2.775630 4.018655 134 127 110
0.910034 1.583503 6.913105 40 38 26
1.475289 1.252905 10.848941 80 71 66
0.825484 1.622022 6.005648 48 53 58
0.978449 1.624727 6.981839 36 33 24
1.423684 1.702244 10.168552 5 4 0
0.549696 2.777939 3.887092 131 123 106
1.448510 1.702071 10.125381 8 9 7
1.305910 1.657142 9.099972 22 19 7
0.610284 2.780700 4.055720 144 138 125
1.092106 1.629678 7.202999 30 22 10
1.092106 1.629678 7.202999 30 22 10
1.353724 1.681309 8.882505 84 78 59
1.110382 1.641943 7.224571 127 120 102
1.133712 1.651532 7.271899 21 18 10
1.140297 1.636592 7.299182 127 114 99
1.126492 1.705494 7.199961 24 22 27
1.030983 1.640269 6.577130 63 47 53
0.751756 1.501964 4.619533 11 16 21
1.223345 1.622727 7.478256 120 109 84
1.214014 1.702865 7.390332 109 103 96
1.236433 1.601933 7.527492 42 35 20
1.236433 1.601933 7.527492 42 35 20
1.131390 1.653864 6.814155 134 83 88
0.686886 2.779999 4.124953 147 137 121
1.274949 1.607973 7.677271 110 99 69
0.788875 1.439136 4.703014 94 110 120
1.146653 1.650413 6.754631 52 53 65
0.791177 1.437154 4.647667 54 64 66
0.785839 1.503921 4.612608 35 51 59
1.857602 1.332754 10.842640 86 78 64
0.797458 1.495930 4.595786 145 154 155
1.843674 1.294791 10.634153 95 90 73
1.659823 1.689073 9.552187 28 24 10
0.846753 1.387610 4.834028 37 39 44
0.822263 1.449357 4.678042 176 181 180
1.388953 1.619386 7.896351 83 79 53
0.740337 2.783995 4.176675 142 133 118
0.812175 1.507447 4.571326 52 68 70
0.828901 1.401952 4.655477 28 32 36
1.770750 1.616151 9.942231 45 44 40
0.928107 1.680913 5.207262 78 92 90
1.411744 1.624781 7.862473 35 27 10
1.430750 1.627494 7.949336 127 112 96
1.288294 1.655179 7.145719 115 82 79
1.668107 1.691028 9.254307 79 72 55
0.845496 1.440521 4.663539 61 80 85
0.759343 2.783772 4.177427 141 134 116
1.420609 1.682077 7.819003 22 20 10
1.443615 1.660600 7.918791 93 90 74
0.859797 1.433036 4.677778 45 61 60
1.463068 1.647936 7.955793 24 22 9
1.463068 1.647936 7.955793 24 22 9
1.460376 1.695741 7.898003 79 76 65
1.460376 1.695741 7.898003 79 76 65
1.776474 1.699471 9.538781 29 26 21
1.461150 1.702766 7.815644 31 34 41
1.461150 1.702766 7.815644 31 34 41
1.236311 1.662634 6.555139 128 90 92
1.285191 1.666299 6.602893 53 51 53
1.933329 1.596618 9.932835 38 37 32
0.968699 1.429704 4.922950 87 101 108
0.826193 2.789859 4.163703 146 139 121
0.966911 1.450199 4.866053 149 153 155
0.966911 1.450199 4.866053 149 153 155
2.007462 1.732996 10.106945 9 9 6
0.879479 1.695838 4.398648 143 139 108
0.810870 2.789288 4.062798 137 128 111
1.439319 1.694160 7.200832 41 45 53
1.330648 1.674878 6.617948 39 48 59
0.887130 1.740954 4.399277 40 41 43
1.723168 1.654407 8.579761 31 25 12
0.975882 1.450911 4.832439 65 83 88
0.922237 1.488692 4.534773 167 170 168
2.025201 1.658693 10.003192 72 68 65
0.898297 1.674573 4.388331 129 105 95
0.925806 1.487818 4.511745 59 84 89
0.892362 2.791995 4.330712 147 140 124
1.499004 1.682552 7.286468 47 50 55
0.825257 2.790052 4.004639 137 128 111
1.745731 1.723929 8.449991 115 98 83
0.949403 1.476598 4.578450 177 179 177
0.862964 2.786403 4.160037 94 87 69
1.378371 1.683699 6.644747 124 95 92
0.937849 1.470010 4.509047 84 102 110
0.942044 2.791146 4.512373 119 111 97
2.226263 1.423760 10.745028 85 79 61
1.733491 1.752803 8.330846 42 36 35
1.914633 1.682430 9.187602 103 94 76
1.817299 1.676785 8.701527 22 15 6
0.962101 1.463221 4.582425 176 177 175
0.920449 1.752972 4.365311 163 88 91
1.805526 1.718545 8.579441 22 19 12
0.957502 2.798846 4.522458 59 51 33
0.949504 1.507587 4.493161 24 32 36
0.927645 1.699747 4.383288 25 36 35
1.847878 1.710382 8.738187 26 26 19
0.834026 2.795165 3.938154 155 148 136
1.687471 1.692309 7.951573 116 68 66
0.962963 1.486546 4.497671 24 40 45
0.940543 2.797770 4.376779 147 139 126
0.986956 1.465945 4.567335 176 177 176
0.976257 1.491978 4.485068 69 88 89
0.983433 1.467420 4.498169 52 65 71
0.989243 1.474421 4.490356 88 105 113
0.989243 1.474421 4.490356 88 105 113
2.392517 1.552328 10.886472 90 83 71
0.989583 2.794159 4.462521 132 124 113
0.968254 2.798159 4.321475 102 95 77
1.015333 1.464338 4.532838 92 110 119
1.014788 1.462450 4.528249 92 110 119
2.093116 1.708678 9.349403 134 117 98
2.032993 1.816143 9.076160 39 33 28
1.145877 1.442892 5.066857 32 43 44
2.585219 1.570758 11.277798 12 10 11
2.192359 1.699998 9.524355 16 13 5
1.552497 1.715277 6.716177 59 54 47
1.021578 1.636015 4.397951 48 68 93
1.054900 2.805432 4.517045 79 72 56
2.600557 1.637174 11.139013 10 8 9
1.626988 1.719724 6.934065 51 44 55
1.033358 2.797615 4.395518 80 73 55
0.973876 2.799595 4.140835 101 93 77
2.236923 1.786239 9.493662 23 20 15
2.236923 1.786239 9.493662 23 20 15
2.746497 1.556365 11.632364 67 56 43
1.106552 2.811689 4.647714 98 95 83
1.774543 1.727617 7.476249 129 95 90
2.270188 1.807571 9.550945 89 81 63
0.941530 2.802622 3.940918 151 141 130
1.515852 1.695763 6.315390 48 48 59
2.909820 1.421830 12.115869 7 5 1
1.032086 1.830081 4.258557 4 1 6
2.903033 1.501276 12.038828 60 55 50
1.035395 1.819343 4.264858 63 76 82
2.932044 1.448430 12.120444 80 72 72
1.075956 2.798884 4.399132 133 124 114
1.063544 2.802189 4.338376 147 141 123
1.088944 2.801346 4.429710 135 128 118
1.019316 2.802439 4.137759 148 141 125
1.019316 2.802439 4.137759 148 141 125
2.593412 1.731628 10.420938 78 72 52
2.559910 0.820153 10.232948 24 13 11
1.927434 1.768890 7.694591 119 76 71
1.927434 1.768890 7.694591 119 76 71
1.118380 1.468269 4.452475 66 71 75
2.605244 1.789411 10.354395 30 24 11
2.761068 1.738703 10.978397 83 77 69
1.678663 1.718364 6.625861 107 87 82
1.899979 1.744718 7.472120 47 37 48
1.037344 2.806159 4.051286 150 142 131
2.736693 1.772454 10.650543 109 99 92
1.909405 1.745403 7.395055 100 82 85
2.465141 1.809175 9.502530 37 33 27
1.151462 1.471926 4.380997 35 43 50
1.151462 1.471926 4.380997 35 43 50
2.918031 1.747493 11.131305 44 40 31
1.153880 1.478151 4.369019 78 98 107
1.665012 1.714254 6.274113 134 120 99
1.319745 1.462854 4.970046 22 28 34
1.340631 1.458059 5.039304 161 162 159
1.098862 2.803925 4.133381 152 149 134
1.168533 1.467006 4.384444 98 114 127
3.015507 1.801420 11.320858 106 97 83
1.163064 1.481915 4.344835 22 32 37
3.066140 1.755072 11.437174 105 97 87
3.075175 1.752566 11.467452 103 95 85
1.174161 2.812247 4.326380 151 146 135
1.083553 2.810116 3.973663 99 87 69
3.157556 1.824527 11.489004 26 22 10
1.201591 1.456152 4.352546 174 176 175
1.198809 1.479355 4.331747 29 42 60
1.777052 1.729981 6.397158 46 53 62
1.224125 1.456213 4.364991 101 118 116
1.207760 1.648638 4.288444 139 97 113
1.207760 1.648638 4.288444 139 97 113
1.207760 1.648638 4.288444 139 97 113
2.757344 1.830876 9.793216 42 37 36
1.214893 1.647946 4.302655 62 43 61
1.221470 1.476135 4.324154 38 50 53
2.684611 1.829085 9.504109 42 34 32
1.276309 2.815534 4.488466 29 23 12
1.231275 1.645594 4.301724 120 83 93
2.352688 1.796323 8.160523 44 38 42
1.247639 1.478902 4.302116 90 101 111
1.208258 2.810412 4.164954 100 93 75
3.387160 1.810545 11.637403 15 10 7
2.388911 1.806652 8.171645 39 38 45
1.830513 1.690471 6.099861 137 93 77
1.257499 1.806440 4.165244 85 104 113
1.292532 1.459482 4.269276 44 58 58
1.865677 1.687054 6.150057 35 34 42
1.275565 1.808815 4.196102 43 59 82
1.276123 2.815990 4.194243 162 155 140
1.276123 2.815990 4.194243 162 155 140
3.128669 1.707407 10.262515 134 127 113
1.204503 2.825821 3.938298 146 139 122
2.591434 1.855656 8.403757 38 31 26
1.313557 1.456492 4.257221 47 63 69
1.877484 1.707461 6.045553 57 51 58
1.341595 2.820884 4.306951 139 134 116
3.089914 1.856666 9.901476 83 57 59
3.111756 1.881199 9.948796 86 62 61
3.111756 1.881199 9.948796 86 62 61
2.436519 1.831984 7.773499 48 43 44
1.338372 1.455563 4.247428 34 48 48
1.257147 2.825553 3.998991 83 74 56
1.353564 1.445798 4.269207 62 82 91
1.365781 1.569215 4.283813 31 34 38
1.558110 1.489547 4.879734 8 18 18
1.382281 1.447650 4.326434 100 119 126
1.382281 1.447650 4.326434 100 119 126
2.055779 1.752619 6.346595 62 56 69
1.406946 2.828652 4.335783 136 131 115
1.338421 2.826909 4.109577 90 83 67
1.433483 1.421657 4.391327 53 58 63
1.962918 1.726882 5.991216 72 65 72
1.384077 1.459792 4.229096 17 25 31
2.029595 1.753517 6.169384 120 102 82
1.421309 1.443548 4.321321 88 111 113
1.399873 1.454386 4.254972 35 44 49
1.428146 1.449826 4.298833 54 65 70
3.316849 1.846569 9.978249 20 21 21
3.299884 1.892954 9.911647 141 123 99
1.372844 2.828474 4.131044 146 138 124
2.189614 1.775590 6.548965 57 57 58
1.376728 2.834161 4.123504 79 72 54
2.081851 1.749930 6.145602 143 132 111
1.381889 2.831831 4.087636 156 149 133
1.423405 2.832817 4.204321 97 90 70
3.410319 1.930634 10.032399 34 29 30
3.410319 1.930634 10.032399 34 29 30
2.278114 1.792513 6.685362 52 52 49
3.410484 1.851033 10.002784 40 19 19
1.443111 2.828785 4.227574 84 77 61
1.479434 2.834956 4.329662 126 118 107
1.575378 1.434947 4.581250 92 108 109
1.419696 1.732604 4.131101 15 22 30
3.429506 1.843548 9.957599 30 16 11
2.837924 1.932832 8.216502 46 45 47
3.527802 1.810429 10.214767 43 37 34
1.435731 1.679614 4.132858 24 36 55
1.530650 1.440126 4.392660 25 29 30
1.530650 1.440126 4.392660 25 29 30
1.561293 1.429271 4.478979 24 28 34
1.573124 1.408437 4.516759 169 171 168
1.445510 1.698256 4.149950 89 103 103
1.444664 1.719768 4.140761 22 31 24
3.613832 1.825285 10.334789 39 32 23
1.444392 1.751491 4.129753 84 95 89
1.437666 1.801821 4.099112 173 159 87
3.588449 1.832501 10.187819 85 55 40
3.630719 1.820118 10.303674 133 118 87
3.630719 1.820118 10.303674 133 118 87
3.638566 1.803338 10.303399 139 123 88
2.355844 1.790339 6.650590 151 146 126
1.576347 2.838987 4.438161 81 73 59
1.633317 1.430669 4.578772 52 67 70
1.475893 1.730608 4.120737 163 161 105
3.597682 2.050632 10.007747 20 21 29
1.470724 1.741039 4.096015 80 97 78
1.649039 1.573358 4.577883 27 31 33
1.479049 1.769284 4.089664 87 61 74
1.752302 1.396783 4.808860 162 167 171
3.096112 1.983754 8.415334 113 88 83
3.079506 1.968199 8.193380 50 37 37
2.642831 1.848007 6.944830 90 85 91
2.920401 1.920251 7.571767 112 81 82
1.562105 1.819558 4.063225 3 3 4
1.577589 1.802029 4.064435 51 63 85
3.709024 2.097331 9.519919 117 101 97
3.709024 2.097331 9.519919 117 101 97
1.936566 1.688627 4.951844 79 91 88
2.235854 1.744954 5.704452 45 59 59
3.085949 1.962098 7.848264 47 45 51
3.364152 2.025816 8.547057 50 40 46
4.014231 2.130114 10.182491 15 10 10
4.371713 1.839608 11.093672 49 35 35
4.371713 1.839608 11.093672 49 35 35
2.376491 1.766729 5.978626 57 51 56
2.396334 1.749142 6.018672 121 86 84
1.857929 1.657205 4.677214 42 43 42
2.198261 1.731413 5.526069 44 57 60
2.324783 1.750764 5.835270 170 149 125
2.252410 1.736880 5.617826 57 63 66
4.091243 2.098357 10.146805 67 68 58
2.493060 1.775706 6.142211 125 89 93
4.125219 2.136404 10.146297 10 8 8
2.474684 1.775811 6.066175 136 95 100
1.764997 2.868536 4.319630 81 75 55
4.386484 1.993603 10.690809 98 68 75
2.222528 1.736275 5.391467 67 56 68
2.490353 1.780042 6.026342 130 92 91
4.298638 2.118912 10.366942 93 62 59
2.039555 1.688741 4.913347 41 49 64
3.205439 1.949434 7.621273 101 78 81
1.981334 1.675891 4.699274 146 88 100
1.981334 1.675891 4.699274 146 88 100
4.319359 2.159881 10.166817 12 11 7
2.036023 1.678577 4.798583 56 63 80
4.477288 2.229658 10.467933 13 11 10
4.477288 2.229658 10.467933 13 11 10
4.593748 2.036711 10.729021 95 64 73
4.593748 2.036711 10.729021 95 64 73
2.211451 1.692750 5.160983 186 178 126
3.112403 1.920639 7.200535 52 47 47
2.287848 1.692498 5.291538 55 58 69
2.174781 1.690084 5.030774 49 61 67
4.554945 2.243672 10.455274 9 1 1
2.414023 1.737099 5.543421 92 57 60
1.831013 1.652455 4.210773 159 110 118
2.557504 1.765005 5.853408 62 69 81
2.094144 1.670215 4.782306 181 174 135
1.848923 1.651400 4.229705 49 56 72
2.339400 1.708858 5.336006 196 178 148
2.227934 1.702861 5.046766 154 152 137
2.227934 1.702861 5.046766 154 152 137
4.584276 2.227084 10.351020 21 19 24
3.493381 1.987200 7.868401 46 41 44
2.642556 1.768601 5.947316 89 92 76
2.626348 1.754809 5.899070 85 87 73
4.730567 2.225906 10.613362 141 125 102
2.548329 1.748029 5.698222 58 62 71
2.294104 1.706316 5.132568 50 60 68
4.770899 2.101618 10.590582 38 38 42
4.770899 2.101618 10.590582 38 38 42
4.685319 2.232295 10.364122 26 25 22
4.685319 2.232295 10.364122 26 25 22
5.003561 2.087203 11.039778 88 49 33
5.003561 2.087203 11.039778 88 49 33
4.862098 2.149887 10.699937 34 34 37
5.163564 2.064127 11.343671 125 122 96
2.186620 1.678528 4.807613 74 63 69
4.843184 2.166554 10.608903 34 33 37
2.963548 1.840074 6.484387 48 43 50
2.963548 1.840074 6.484387 48 43 50
3.426476 1.940260 7.497300 92 72 74
2.323079 1.710785 5.090145 56 60 64
2.252729 1.698370 4.931200 109 76 58
2.192710 1.687251 4.798030 51 53 69
2.991672 1.839352 6.528126 98 81 84
5.716693 2.100943 12.443169 91 91 78
2.043892 1.666460 4.446527 188 181 140
2.178158 1.682778 4.728827 156 105 97
3.489700 1.942983 7.545436 103 75 77
5.706388 2.069118 12.336191 64 66 56
2.280689 1.692225 4.914720 75 46 54
2.280689 1.692225 4.914720 75 46 54
2.680088 1.754936 5.764918 59 57 63
2.791777 1.782948 5.997816 71 71 59
2.422833 1.746123 5.121171 149 85 80
2.422833 1.746123 5.121171 149 85 80
2.262237 1.684518 4.781907 165 94 88
5.216401 2.137928 10.964702 103 63 65
2.375797 1.691257 5.005287 155 95 85
2.223734 1.686827 4.670992 61 57 46
4.557873 2.200327 9.536325 44 40 39
2.195161 1.679184 4.603244 59 51 57
2.571792 1.721665 5.364645 98 99 95
3.129793 1.854005 6.504312 153 150 135
2.238677 1.687549 4.654728 69 62 70
2.993978 1.812225 6.186587 123 84 83
5.163070 2.204673 10.655224 94 55 56
5.163070 2.204673 10.655224 94 55 56
2.658869 1.716087 5.479629 49 51 67
2.310170 1.687397 4.760751 160 90 85
2.310170 1.687397 4.760751 160 90 85
2.273922 1.688766 4.678132 162 105 93
2.982260 1.805833 6.113516 48 41 42
2.296118 1.689893 4.709749 80 49 52
3.443392 1.861508 7.047465 41 40 49
3.460797 1.907532 7.066626 141 138 126
3.556071 1.926899 7.188306 53 53 56
2.571344 1.725700 5.193831 61 70 79
2.438580 1.701529 4.904446 69 61 70
2.248587 1.701136 4.524464 47 53 61
2.357779 1.695336 4.740932 166 98 94
2.429161 1.704934 4.875020 59 59 67
2.763123 1.718051 5.534263 57 50 52
2.312701 2.925423 4.639535 114 107 91
5.480401 2.255911 10.928617 93 59 49
5.480401 2.255911 10.928617 93 59 49
5.480401 2.255911 10.928617 93 59 49
2.243914 1.722987 4.491835 120 98 101
2.390386 1.709823 4.762619 79 66 75
2.329343 1.706423 4.638535 208 193 170
2.439114 1.704274 4.841778 56 41 54
2.375735 1.710336 4.716320 154 95 90
2.817976 1.738746 5.581332 71 64 71
2.817976 1.738746 5.581332 71 64 71
2.743167 1.715470 5.415893 61 49 58
2.407192 1.718965 4.729194 51 46 60
2.528686 1.713823 4.961752 155 85 73
2.528686 1.713823 4.961752 155 85 73
2.326545 1.774443 4.567982 118 81 91
2.433275 1.729198 4.753374 54 52 57
2.486171 1.720886 4.847918 145 80 70
2.867501 1.728420 5.579281 164 160 92
2.532665 1.726978 4.928178 186 178 133
2.456246 1.762650 4.763341 172 158 124
2.456246 1.762650 4.763341 172 158 124
2.879225 1.758596 5.570138 62 60 66
2.956315 1.753669 5.694389 168 166 111
2.872390 1.760401 5.511212 129 96 90
2.602454 1.744647 4.997344 49 61 65
2.471788 1.818368 4.742243 43 48 53
3.091108 1.779017 5.912839 168 169 129
8.964394 2.715784 17.120247 108 111 110
2.691316 1.744902 5.150025 44 53 55
2.677722 1.771999 5.119359 59 70 74
3.075770 1.770302 5.860522 52 59 54
2.738344 1.755791 5.219675 153 95 96
3.048504 1.768212 5.803156 59 69 70
2.577844 1.796486 4.913126 46 56 62
2.487421 1.901142 4.723131 74 73 78
2.661291 1.778176 5.038037 174 168 134
3.437863 1.844975 6.467572 111 87 95
3.145251 1.784332 5.913333 49 57 62
2.550098 1.912258 4.806678 122 70 76
2.649203 1.794105 4.985651 42 49 54
2.605774 1.843498 4.905365 46 56 58
2.686816 1.835290 5.040391 46 56 60
2.751836 1.802912 5.160964 48 57 52
2.591308 1.909684 4.854117 152 140 95
2.765833 1.813444 5.155779 172 160 114
2.700250 1.908033 5.005439 154 143 109
2.700250 1.908033 5.005439 154 143 109
2.698152 1.901779 4.998710 154 143 109
4.551504 2.046845 8.378656 37 41 44
4.551504 2.046845 8.378656 37 41 44
2.790197 1.873427 5.148627 50 44 48
2.764977 1.896806 5.090835 123 73 74
2.897719 1.871481 5.311621 148 108 100
3.390291 1.828018 6.179138 122 89 79
3.094101 1.867960 5.576187 85 88 84
3.267787 1.863744 5.869970 34 29 31
3.202249 1.880371 5.750979 103 81 77
4.027452 1.929028 7.204023 34 30 27
3.242651 1.888323 5.803893 39 40 52
3.194307 1.905984 5.700146 93 82 86
4.071912 1.950118 7.158328 34 27 24
4.391788 2.012188 7.679751 50 38 37
2.988115 3.003416 5.237137 41 33 22
4.463721 2.038620 7.717516 110 83 68
4.319443 2.021561 7.422501 151 135 108
