ply
format ascii 1.0
element vertex 1244
property float x
property float y
property float z
property uchar red
property uchar green
property uchar blue
end_header
-1.579288 -1.287455 3.507066 133 132 146
1.442312 1.176163 4.407309 32 28 12
1.442312 1.176163 4.407309 32 28 12
-1.602099 0.832067 3.567536 156 139 108
-1.569903 -1.486415 3.496823 156 154 164
-1.569903 -1.486415 3.496823 156 154 164
-1.570413 -1.510138 3.501325 148 147 158
1.432795 1.163912 4.413272 37 34 13
1.432795 1.163912 4.413272 37 34 13
1.426765 1.172418 4.402177 143 130 101
-1.636791 0.742756 3.655886 154 139 103
-1.576114 -0.856959 3.519662 164 162 167
-1.568090 -1.453072 3.505533 37 47 76
-1.563259 -1.472978 3.502613 47 56 83
-1.595209 0.834588 3.579188 67 53 19
-1.551918 0.993532 3.484329 153 144 110
1.383102 1.197601 4.312286 121 114 95
-1.588316 0.848730 3.567372 67 59 38
1.208742 1.169919 3.774946 161 151 113
-1.563827 -1.417394 3.514624 160 155 162
-1.562947 -1.441031 3.514585 160 158 169
-1.562947 -1.441031 3.514585 160 158 169
-1.308567 1.298764 2.959926 47 39 21
-1.579572 0.861634 3.570926 39 25 22
-1.555304 -1.426938 3.519711 42 48 78
-1.556288 -1.403126 3.522995 57 65 102
-1.572060 0.877944 3.561400 39 30 22
-1.554242 -1.450297 3.521663 49 52 89
1.357931 1.132928 4.389250 33 27 16
1.210743 1.176691 3.931399 166 155 115
1.294980 1.194128 4.235582 35 31 17
-1.547099 -1.468421 3.517693 50 59 95
-1.505497 1.164994 3.425430 139 128 105
1.297352 1.162032 4.266309 133 118 103
1.293352 1.174734 4.255594 145 131 111
-1.550062 -1.391965 3.531058 170 165 171
1.299233 1.149867 4.274739 30 25 9
-1.531203 1.005879 3.499459 52 37 15
-1.520951 1.053270 3.477415 29 13 3
-1.542324 -1.456687 3.526115 152 151 159
-1.542324 -1.456687 3.526115 152 151 159
-1.551031 0.922326 3.548063 51 43 21
1.524077 0.976578 5.053601 127 103 77
-1.586210 0.799697 3.636713 165 149 129
-1.586210 0.799697 3.636713 165 149 129
-1.561269 0.874369 3.582657 168 152 118
-1.539706 -1.445809 3.535877 44 49 81
-1.523970 1.020681 3.500302 65 59 38
-1.494328 1.223132 3.432374 135 122 101
-2.151339 1.667631 4.939339 139 127 104
1.519563 0.986292 5.063905 93 76 49
1.519563 0.986292 5.063905 93 76 49
-1.543605 0.924284 3.550866 165 147 121
1.256407 1.182766 4.199729 41 37 28
-1.569258 -1.496882 3.610378 42 46 71
-1.515443 1.048869 3.487210 31 22 7
-1.541060 0.939447 3.547047 40 30 10
-1.579324 -0.603025 3.633080 147 149 155
-1.517755 1.035601 3.494448 47 33 3
1.249564 1.194172 4.190195 135 121 104
-1.536541 -1.433992 3.543864 146 145 153
-1.536541 -1.433992 3.543864 146 145 153
-1.550125 -1.336149 3.576520 129 129 140
-1.536731 -1.424125 3.555976 44 51 85
-1.536731 -1.424125 3.555976 44 51 85
-1.494284 1.129899 3.458087 36 28 10
1.205647 1.185351 4.126368 128 119 109
-1.530793 -1.454983 3.544390 150 149 159
-1.485308 -1.154054 3.439770 168 164 159
-1.535611 -1.412064 3.563957 146 142 144
-1.525410 0.967201 3.542852 57 42 20
-1.498163 1.080919 3.480114 151 141 106
-1.559531 -0.804558 3.625775 175 173 173
-1.525037 -1.441689 3.549383 39 43 80
-1.525037 -1.441689 3.549383 39 43 80
-1.562090 -0.600298 3.633596 157 152 160
-1.152451 -0.460546 2.690177 73 81 104
-1.522287 -1.429483 3.559367 149 152 161
-1.522287 -1.429483 3.559367 149 152 161
0.631783 0.619371 2.230903 149 139 112
-1.527315 0.925600 3.573297 157 138 109
-1.536066 -1.315858 3.594833 135 133 144
-1.517349 -1.450022 3.556041 160 151 161
-1.499759 1.038579 3.516844 145 132 104
-1.499759 1.038579 3.516844 145 132 104
-1.520149 -1.416866 3.567955 44 58 84
-1.520149 -1.416866 3.567955 44 58 84
-2.021120 1.590144 4.740558 138 130 105
-1.548784 -0.784984 3.635793 76 97 128
-1.523627 -1.024154 3.579153 157 147 148
-1.545129 -0.738587 3.631943 60 79 100
-1.545129 -0.738587 3.631943 60 79 100
-1.520594 -1.406079 3.578692 139 137 150
-1.520594 -1.406079 3.578692 139 137 150
1.058702 1.219157 3.967561 29 22 13
-1.520574 0.927967 3.579642 27 18 1
-1.544033 -1.272827 3.641216 126 124 134
1.058883 1.168943 4.018548 161 154 129
-1.249894 1.306808 2.957128 185 173 151
1.052438 1.171076 4.061296 154 141 108
1.023317 1.190821 3.959066 116 115 88
1.030086 1.171314 4.002522 112 107 94
-1.508276 -1.424652 3.574413 151 149 157
-1.551499 0.808930 3.676786 68 62 43
-1.834939 1.566378 4.351880 125 114 90
-1.527205 -0.632795 3.623936 72 104 142
-1.527205 -0.632795 3.623936 72 104 142
0.992906 1.217956 3.925175 122 115 98
-1.502336 0.950186 3.582461 29 21 4
-1.520672 -0.869445 3.624005 176 172 175
0.992875 1.205918 3.925023 136 125 101
-1.504098 0.939614 3.592598 156 142 113
-1.519077 -0.744565 3.630064 64 96 130
-1.366175 1.300157 3.266907 140 128 109
-1.511626 -0.895180 3.617820 171 169 171
-1.074139 1.384109 2.577331 151 147 134
0.987383 1.169387 4.003223 126 117 102
0.963938 1.178261 3.918041 163 149 124
-1.509851 -0.677676 3.628871 58 73 99
0.963088 1.167864 3.924554 32 29 13
-1.444547 1.280443 3.474547 153 145 131
-1.495390 -0.954164 3.596125 178 172 181
-1.445855 1.194958 3.484373 139 130 108
0.953151 1.172368 3.931229 153 144 115
-1.505060 -0.769966 3.640142 83 108 134
-1.505060 -0.769966 3.640142 83 108 134
-1.539911 0.791317 3.727375 141 128 104
-1.092720 1.317094 2.648449 198 188 169
-1.095165 1.304693 2.655220 205 197 190
-1.467054 1.019918 3.568759 121 113 84
-1.499836 -0.765915 3.646970 78 108 147
-1.059255 1.355447 2.581851 171 170 160
-1.472218 0.993137 3.588851 138 122 98
-1.472218 0.993137 3.588851 138 122 98
-1.467662 1.003667 3.582953 141 131 112
0.839119 1.198127 3.581630 183 151 127
-1.554324 -0.982548 3.804457 145 143 150
-1.483605 -0.695435 3.638314 69 99 145
-1.053151 1.346530 2.590334 10 9 6
-1.478742 -0.683138 3.635870 77 106 138
-1.478742 -0.683138 3.635870 77 106 138
-1.424748 1.196219 3.507532 133 117 93
0.939555 1.179133 4.048330 152 137 116
-1.475232 0.926076 3.646946 159 144 115
-1.556820 0.729329 3.850723 156 140 114
-1.532387 0.773484 3.792831 155 142 118
-1.444252 1.050728 3.577231 152 131 103
-1.443424 1.038045 3.580426 30 15 3
-1.045585 1.307421 2.600023 30 20 5
-1.039729 1.360540 2.585112 17 12 17
-1.466929 -0.636900 3.642970 175 173 172
0.850608 1.230715 3.779220 117 111 96
-1.465562 -0.704963 3.651746 80 104 137
-1.459552 -1.186467 3.640785 141 132 139
-1.423811 1.108790 3.553474 141 125 97
-1.410283 1.225284 3.524165 131 122 97
-1.458323 -0.643397 3.648039 94 98 105
-1.034643 1.315091 2.598582 36 25 12
-1.501624 0.806402 3.769623 148 137 113
0.832419 1.186133 3.787446 38 30 13
0.828959 1.193882 3.777083 145 134 117
-1.031564 1.309266 2.600095 164 159 129
0.613442 0.837610 2.808499 145 128 93
-1.475242 -0.618308 3.717244 132 128 128
-1.509394 0.782059 3.811990 43 37 11
-1.447438 -0.644777 3.656332 182 182 184
0.821343 1.182822 3.783364 156 141 115
0.815688 1.188423 3.767702 38 35 27
-1.457089 -0.674808 3.684758 81 96 116
-1.457089 -0.674808 3.684758 81 96 116
-1.470520 -0.615069 3.726116 170 169 172
-1.341617 1.284324 3.403433 64 49 23
0.802760 1.188301 3.754291 126 117 107
-1.575267 0.665284 3.998455 60 49 28
0.793745 1.217323 3.728177 108 101 92
-1.450341 -0.681741 3.687600 181 180 184
-1.488848 0.820883 3.788003 58 51 27
-1.428901 0.997334 3.638262 43 32 4
-1.019561 1.310594 2.600878 172 159 146
-1.406207 -0.902069 3.592430 169 169 174
-1.406207 -0.902069 3.592430 169 169 174
-1.391895 1.181754 3.552180 146 137 108
0.765044 1.233006 3.696202 121 110 104
-1.393562 1.168463 3.558169 142 129 102
-1.435006 -0.652081 3.666270 183 183 182
-1.053696 1.293493 2.697613 65 49 25
0.760356 1.195923 3.711164 96 94 78
0.741999 1.204980 3.685461 152 136 112
0.731424 1.201089 3.686198 28 20 14
-1.004579 1.323527 2.588895 189 182 160
-1.428501 -0.651360 3.680926 73 74 77
-1.156209 1.314067 2.992685 67 55 27
0.713835 1.182010 3.776203 164 150 119
0.713835 1.182010 3.776203 164 150 119
-1.391982 1.092244 3.609254 52 46 22
-1.224212 1.311651 3.176283 53 45 23
-1.374838 1.197607 3.570116 133 127 104
-0.999074 1.295788 2.599438 195 188 171
-1.374131 -1.263444 3.572868 152 139 138
-1.374131 -1.263444 3.572868 152 139 138
-1.374131 -1.263444 3.572868 152 139 138
-1.399253 1.032712 3.647161 154 136 102
-1.454288 0.861489 3.792087 62 56 36
-1.378550 1.125094 3.598300 148 134 106
-1.411982 0.976139 3.686126 32 27 7
-1.392415 1.051528 3.637486 153 139 102
-1.361724 -0.943615 3.562442 176 164 165
-1.522579 1.331127 3.994679 141 130 111
-1.394916 1.021266 3.663242 117 113 84
-1.394916 1.021266 3.663242 117 113 84
-0.954193 1.378043 2.506525 16 14 18
-1.029511 1.284855 2.707571 56 48 28
-1.444627 0.873283 3.799774 65 54 26
0.599889 1.225081 3.551996 37 31 26
0.599889 1.225081 3.551996 37 31 26
-1.342867 1.282258 3.541060 171 165 149
-0.948815 1.404195 2.504436 128 126 110
-0.975497 1.312706 2.582324 54 45 16
0.588735 1.230664 3.543028 121 116 118
0.592930 1.187066 3.586088 161 151 125
-1.571161 1.382218 4.166969 143 132 111
-0.940171 1.379275 2.498725 188 179 157
0.580187 1.199824 3.544725 40 28 24
-1.407547 -0.689231 3.747663 54 77 110
-1.407547 -0.689231 3.747663 54 77 110
-1.096099 1.310520 2.921165 59 36 11
0.575915 1.193116 3.558219 164 148 134
-1.427865 0.890824 3.803902 160 146 108
-1.506634 1.297675 4.019291 149 137 110
-1.009208 1.301419 2.698052 42 38 18
0.554595 1.206747 3.521261 120 111 102
-1.397266 -0.688503 3.733490 60 86 121
-1.397266 -0.688503 3.733490 60 86 121
-1.428159 -0.804935 3.824685 47 47 49
-1.393019 -0.672549 3.731530 187 187 184
0.555352 1.190440 3.551053 163 149 118
0.542872 1.236449 3.495705 110 112 108
0.542250 1.196500 3.532172 33 29 16
0.542250 1.196500 3.532172 33 29 16
0.542164 1.200487 3.542352 33 29 16
0.531007 1.237101 3.481273 22 23 18
0.528329 1.206509 3.491170 48 42 28
-1.324196 0.986326 3.559749 123 111 90
-1.375352 1.023272 3.696777 123 111 90
0.526385 1.191076 3.517806 155 140 111
0.519091 1.201520 3.497425 165 143 119
-1.384608 -0.667342 3.741018 55 72 98
-1.361342 -1.164824 3.680884 134 120 119
0.509661 1.190514 3.539839 161 148 119
-1.388459 -0.621250 3.759221 188 187 189
-1.331078 -1.214076 3.608137 116 96 98
-1.331078 -1.214076 3.608137 116 96 98
-1.382664 0.964095 3.757695 140 126 89
-1.059433 1.311297 2.880778 70 63 34
-0.935762 1.307786 2.554060 76 63 43
-1.328919 1.224216 3.622481 139 128 107
-1.329976 1.167355 3.630775 138 126 96
0.479412 1.199316 3.474405 42 32 16
0.623339 1.248472 4.636296 19 15 6
-0.908229 1.362884 2.490579 60 49 33
-1.372350 -0.739285 3.763734 79 110 153
-1.323346 1.195684 3.632296 134 123 102
-1.360882 1.005117 3.746715 40 34 13
-1.360882 1.005117 3.746715 40 34 13
-1.321538 1.167292 3.645267 146 132 103
-1.332986 -1.322322 3.699015 88 63 64
-1.306748 -0.897158 3.623762 75 94 121
-1.349201 -0.704528 3.744891 68 97 134
-0.914359 1.309994 2.544308 194 183 159
-1.356515 -0.628304 3.769474 189 188 184
-1.329345 -1.195312 3.700954 159 144 132
-1.360830 -0.923732 3.796365 74 100 136
-1.311153 1.167412 3.656699 157 143 121
-1.316221 -1.151037 3.678682 132 115 108
-0.973315 1.302252 2.735007 58 46 25
-0.973315 1.302252 2.735007 58 46 25
-1.299107 -1.171362 3.653005 177 150 144
0.371506 1.239859 3.356467 146 130 104
0.368575 1.228021 3.360886 155 143 127
0.368575 1.228021 3.360886 155 143 127
-1.295926 1.225082 3.656900 127 117 96
-1.316461 1.095734 3.715245 62 56 33
-1.321551 1.068527 3.733467 48 41 13
-0.901673 1.298025 2.551724 95 80 49
-1.324849 1.055797 3.744863 163 143 106
0.479297 1.250332 4.436315 44 37 20
-0.873910 1.375016 2.473333 172 166 148
-1.334478 -0.642651 3.776159 79 114 156
-1.334478 -0.642651 3.776159 79 114 156
-0.876220 1.343511 2.483259 84 60 41
-0.937218 1.311267 2.660033 60 45 15
-0.894435 1.305023 2.540423 205 195 177
-1.329054 -0.687532 3.778769 72 103 138
0.353126 1.218124 3.345258 33 23 5
-0.967575 1.290584 2.757596 194 185 159
-1.301881 1.126091 3.707623 157 142 112
2.661086 9.552898 25.078182 113 106 89
-1.310702 1.082273 3.737813 144 135 109
-0.866285 1.370271 2.471056 161 152 130
-1.326078 -0.651349 3.782896 85 109 155
-1.282475 -1.167300 3.667304 92 66 64
-1.321632 -0.631187 3.782345 187 186 187
-1.343961 -0.807060 3.851278 61 78 107
-1.320743 -0.690135 3.782467 76 100 130
-1.320743 -0.690135 3.782467 76 100 130
0.417172 1.242247 4.083991 151 141 107
0.417172 1.242247 4.083991 151 141 107
0.417172 1.242247 4.083991 151 141 107
-0.923989 1.427715 2.654781 72 59 32
-0.861546 1.340165 2.476339 196 184 160
-1.314342 -0.734401 3.775139 72 91 112
-1.317223 -0.724117 3.783914 181 180 178
-1.129221 1.607074 3.251404 41 26 3
-1.284137 1.165801 3.698964 155 149 126
-1.032174 1.305408 2.976368 192 178 153
-0.943330 1.314336 2.724512 194 186 166
-0.996043 1.305349 2.876340 196 180 157
-1.275640 -1.148464 3.680819 150 131 130
-1.275640 -1.148464 3.680819 150 131 130
0.333018 1.221764 3.332798 75 60 41
-0.875673 1.305297 2.530852 94 82 54
0.333018 1.221764 3.332798 75 60 41
-1.273501 1.194587 3.695888 153 139 116
-0.939280 1.313603 2.730029 58 37 6
-0.912814 1.305577 2.653823 204 194 168
0.317719 1.230112 3.317051 50 42 22
-1.303955 -0.640775 3.798128 189 187 188
-1.302606 -0.720653 3.797056 83 114 162
-1.298860 -0.622140 3.795130 175 172 177
-1.271953 -1.244918 3.714891 79 58 55
-1.295307 -1.441170 3.799573 51 41 49
-1.015413 1.307097 2.977667 27 18 14
-0.896725 1.317703 2.638824 51 33 5
-1.006522 1.310290 2.967170 168 162 133
-1.267965 -1.262966 3.751968 85 57 63
0.291475 1.214917 3.305739 158 151 118
0.359321 1.236380 4.078245 29 24 12
-1.231947 -1.210343 3.648605 70 49 52
-1.283311 -0.760866 3.804178 80 101 140
-0.811045 1.450836 2.402085 12 9 11
-0.887995 1.318177 2.637020 198 186 166
0.284482 1.246570 3.276207 47 40 14
-0.849939 1.298595 2.530623 193 188 175
-1.368005 -1.055437 4.066358 67 92 135
-1.275929 -0.693866 3.802369 74 109 158
-1.276553 -0.661688 3.809080 74 106 151
-1.257022 -1.263097 3.761525 83 57 62
-1.265972 -0.670568 3.805868 72 104 147
-0.873806 1.313126 2.635378 203 199 170
-1.329501 -1.035579 4.002668 66 90 132
-1.262617 -0.637459 3.812743 186 183 183
-1.151759 1.301791 3.478400 19 18 7
-1.151759 1.301791 3.478400 19 18 7
-1.281297 -0.819780 3.873802 78 101 141
-1.243933 -1.297393 3.786472 70 49 50
-1.219143 -1.245834 3.705737 68 48 45
-1.256304 -1.104424 3.830206 159 137 141
-0.820372 1.312219 2.500726 82 69 50
-1.141234 1.303344 3.476551 164 153 129
-0.804468 1.335842 2.456414 201 190 168
-0.788098 1.434218 2.401045 182 175 144
-1.247110 -0.642532 3.815748 87 96 107
-1.246756 -0.629166 3.820041 171 171 170
0.211860 1.258455 3.001292 208 196 147
0.284138 1.242714 4.006613 162 147 125
-1.130333 1.305050 3.469579 30 26 11
-1.130333 1.305050 3.469579 30 26 11
-1.240003 -0.682875 3.821757 82 98 145
0.246212 1.240432 3.700027 159 150 120
-1.244764 -0.764481 3.847879 71 94 132
-1.244764 -0.764481 3.847879 71 94 132
0.209676 1.297312 3.198529 19 16 11
0.202020 1.298409 3.193327 136 126 113
-1.230386 -0.640323 3.823590 82 108 145
-1.230386 -0.640323 3.823590 82 108 145
0.199718 1.218013 3.239729 44 35 25
-0.776473 1.393096 2.415182 182 176 152
-0.776473 1.393096 2.415182 182 176 152
-0.779655 1.369695 2.427615 199 188 168
-0.819050 1.455441 2.550348 54 47 34
-1.204027 1.250715 3.769397 157 149 128
-1.204027 1.250715 3.769397 157 149 128
-0.816948 1.438099 2.559794 61 46 25
0.176353 1.291935 3.172861 51 36 20
-1.230482 -0.789871 3.868603 82 93 111
-1.263227 -0.746635 3.976576 190 190 186
-1.247248 -0.838351 3.927141 65 68 72
-0.778071 1.337168 2.448809 193 187 159
-1.217579 -0.634032 3.834618 178 177 173
-1.222912 -0.735665 3.852134 87 106 146
-1.222912 -0.735665 3.852134 87 106 146
0.170003 1.295815 3.167426 149 141 115
-0.858485 1.304112 2.710936 51 46 33
-0.830507 1.296485 2.625342 189 183 168
-1.193809 1.259969 3.777922 25 21 9
-0.804544 1.464900 2.546975 177 163 130
0.216689 1.271250 4.321778 152 139 107
-0.762996 1.369542 2.427342 181 173 146
-0.803934 1.442955 2.557522 181 173 146
0.157130 1.286481 3.168328 156 141 120
0.152192 1.254382 3.160289 164 155 123
0.152339 1.246312 3.160788 33 25 12
0.147973 1.288201 3.156118 150 137 114
-0.846219 1.288256 2.730366 89 81 59
-1.189635 -0.651715 3.835552 192 191 189
-1.033148 -0.600042 3.332566 192 190 192
-1.072272 1.283473 3.470713 26 20 9
0.132482 1.285221 3.142588 56 50 21
0.122010 1.298910 3.127507 145 135 112
-0.751098 1.350847 2.444264 181 176 150
-1.187414 -0.707164 3.866835 66 96 135
-1.005394 1.311853 3.275565 170 160 131
-1.190553 -1.006225 3.882618 54 73 110
-1.190553 -1.006225 3.882618 54 73 110
0.119603 1.278549 3.131904 157 144 117
0.119603 1.278549 3.131904 157 144 117
-0.831057 1.306887 2.715152 168 165 128
-0.750766 1.341945 2.449677 56 44 26
-1.057609 1.286762 3.454332 164 155 126
0.116653 1.305259 3.121371 34 27 8
0.158542 1.270936 4.385223 46 37 21
0.104457 1.311832 3.112349 39 31 16
0.117516 1.237854 3.506523 40 36 22
-1.184353 -0.958565 3.907760 164 161 169
-1.050670 1.277007 3.468248 175 161 137
-1.050670 1.277007 3.468248 175 161 137
-0.982241 1.351673 3.268033 62 54 40
-1.162140 -0.647902 3.863461 90 112 142
-0.734952 1.367867 2.443218 35 29 13
-0.735901 1.345723 2.453214 193 183 164
0.086136 1.316027 3.099011 144 133 101
-1.205303 -0.891226 4.038228 64 77 101
-0.730180 1.365717 2.445633 171 163 132
-0.809379 1.288971 2.723719 30 23 6
-0.809379 1.288971 2.723719 30 23 6
-0.733172 1.323789 2.470604 193 185 164
0.069843 1.243809 3.102233 106 95 71
0.060498 1.516731 2.682243 177 187 188
-0.724380 1.381439 2.444606 154 141 119
0.061865 1.247147 3.087376 36 33 19
-0.799935 1.296558 2.716596 193 181 157
-0.725386 1.343207 2.461077 167 157 140
-0.969864 1.307257 3.292631 31 23 20
-1.144566 -1.228994 3.898492 78 56 47
0.066155 1.263020 3.922964 153 146 118
-0.718612 1.380722 2.447348 33 27 11
0.046578 1.328153 3.061329 29 22 15
0.057606 1.259444 3.758635 43 39 23
-0.792108 1.298779 2.713010 76 64 35
0.297042 5.112403 19.176764 129 117 89
0.031959 1.259978 3.060824 38 36 24
-0.711505 1.364109 2.460783 168 158 142
-0.735745 1.307413 2.551096 84 69 43
0.031959 1.259978 3.060824 38 36 24
-1.121366 -0.632346 3.885251 190 191 192
-0.780434 1.302116 2.709386 187 173 143
-1.129434 -1.073963 3.945073 171 166 166
0.021765 1.331642 3.037725 44 35 19
-0.710611 1.322637 2.479044 66 55 32
-0.711770 1.312215 2.501512 67 54 28
-0.702381 1.361974 2.468114 33 23 14
-0.698557 1.319639 2.487962 190 184 167
0.007742 1.265073 3.038728 30 25 16
-0.699587 1.316177 2.495609 89 74 45
-0.691236 1.325437 2.488351 33 23 13
-0.830339 1.298840 2.993397 48 38 18
-1.097993 -0.659418 3.963702 38 24 21
-0.686048 1.362879 2.478100 132 133 118
-0.685456 1.334762 2.488196 168 158 145
-1.109072 1.259344 4.042799 45 39 16
-0.012692 1.238615 3.071992 38 30 24
-1.016484 1.266919 3.739195 43 38 28
-0.012692 1.238615 3.071992 38 30 24
-0.923449 1.303570 3.429104 147 137 119
-0.685444 1.307453 2.549932 70 65 35
-0.671206 1.311130 2.517807 67 64 37
-0.671206 1.311130 2.517807 67 64 37
-0.029373 1.275647 3.012252 27 24 14
-0.785753 1.307312 2.966929 176 163 124
-1.034793 -1.151570 3.937912 40 27 27
-0.655954 1.310922 2.532293 165 155 128
-0.042484 1.318241 2.982949 156 145 130
-0.673610 1.303670 2.611864 195 188 168
-0.039858 1.286397 2.720836 211 203 156
-0.044795 1.327455 2.971143 54 38 28
-0.660374 1.297817 2.617885 53 40 26
-0.051263 1.310838 2.977325 165 154 128
-0.636698 1.328909 2.525184 136 131 113
-0.052808 1.302972 2.979846 40 27 19
-1.045456 -0.651382 4.153530 44 26 24
-0.900888 1.291739 3.620946 68 57 36
-0.627559 1.341091 2.529415 149 143 113
-0.634523 1.297406 2.572527 65 59 31
-0.996084 -0.621170 4.046426 39 20 20
-0.062393 1.284567 2.983039 19 12 2
-0.062393 1.284567 2.983039 19 12 2
-0.620620 1.326943 2.539865 148 146 110
-0.620620 1.326943 2.539865 148 146 110
-0.914551 1.283098 3.747229 161 146 119
-0.068452 1.255180 2.984493 150 141 125
-0.652894 1.283735 2.701975 45 30 14
-0.611018 1.318731 2.549355 141 137 104
-0.605300 1.344166 2.543386 148 145 126
-0.614788 1.300884 2.590790 73 56 25
-0.637211 1.288942 2.691009 63 51 30
-0.085144 1.244669 3.019307 39 32 13
-0.599080 1.346121 2.547014 26 25 28
-0.765836 1.285186 3.261792 51 43 20
-0.085351 1.315607 2.946004 22 14 1
-0.608016 1.294477 2.611657 194 192 169
-0.592364 1.340405 2.550934 155 143 121
-0.592985 1.329249 2.558490 47 40 26
-0.597639 1.307786 2.580427 52 46 23
-0.597639 1.307786 2.580427 52 46 23
-0.620946 1.290813 2.694095 193 183 149
-0.092054 1.318826 2.941576 152 134 110
-0.739937 1.286749 3.238391 170 152 128
-0.586853 1.303344 2.583622 94 86 67
-0.583163 1.319723 2.570599 53 49 15
-0.591541 1.293692 2.608501 193 181 154
-0.580327 1.330338 2.564400 166 151 119
-0.580327 1.330338 2.564400 166 151 119
-0.110886 1.254436 2.971915 22 21 10
-0.103953 1.290415 2.687960 207 200 163
-0.573570 1.302367 2.596877 89 69 34
-0.118732 1.249897 3.108715 51 41 16
-0.115291 1.250787 2.989681 53 51 37
-0.121021 1.275086 2.935813 168 157 116
-0.122580 1.264772 2.947132 164 155 130
-0.581181 1.279855 2.710402 185 172 150
-0.581181 1.279855 2.710402 185 172 150
-0.668828 1.297079 3.153052 179 163 141
-0.549773 1.321545 2.593527 39 33 21
-0.130762 1.289994 2.917171 170 156 137
-0.723825 1.294516 3.448704 161 148 120
-0.544112 1.318485 2.595237 150 145 127
-0.138180 1.281537 2.916529 29 24 17
-0.541838 1.316023 2.600120 45 35 18
-0.589529 1.296062 2.848308 39 26 12
-0.149889 1.249283 3.075726 181 173 146
-0.536777 1.333312 2.603777 44 41 24
-0.534411 1.313772 2.604938 34 22 16
-0.534411 1.313772 2.604938 34 22 16
-0.147207 1.257450 2.968045 183 172 140
-0.532248 1.309928 2.617636 45 37 24
-0.530443 1.300859 2.626919 170 157 133
-1.531226 3.797493 7.663397 61 51 39
-0.159641 1.268041 2.909608 19 10 2
-0.616743 1.295086 3.122895 33 28 17
-0.616743 1.295086 3.122895 33 28 17
-0.160671 1.296701 2.902081 21 17 10
-0.513887 1.332881 2.615051 149 144 139
-0.513887 1.332881 2.615051 149 144 139
-0.121775 0.683563 2.104888 47 40 30
-0.514682 1.303305 2.631238 141 140 112
-0.510916 1.313991 2.624137 178 166 143
-0.510916 1.313991 2.624137 178 166 143
-0.599233 1.295701 3.118210 52 44 26
-0.260529 1.271247 3.730410 184 165 141
-0.489502 1.294050 2.660786 152 146 127
-0.480855 1.313398 2.646121 160 155 127
-0.480855 1.313398 2.646121 160 155 127
-0.482935 1.295576 2.665228 33 23 19
-0.230908 1.302568 2.838891 147 140 120
-0.554756 1.291915 3.115978 159 151 116
-0.238169 1.299909 2.836969 24 22 15
-0.429110 1.321021 2.410678 206 188 162
-0.251791 1.289000 2.827292 140 130 104
-0.374901 1.262464 4.069646 46 35 19
-0.340613 1.266992 3.699430 27 22 12
-1.374177 4.076896 8.138473 36 35 25
-0.412730 1.320065 2.443514 205 205 149
-0.348468 1.269235 3.694006 148 136 118
-0.405651 2.085302 4.279412 25 23 23
-0.405313 2.058847 4.268958 23 18 8
-0.430726 1.328690 2.676817 28 23 9
-1.316818 4.084771 8.211325 28 23 9
-0.430726 1.328690 2.676817 28 23 9
-0.424887 1.317998 2.686421 153 144 123
-0.424549 1.322570 2.683633 25 14 6
-0.420484 1.312508 2.691257 153 146 122
-0.424606 1.280078 2.726026 81 73 47
-0.418498 1.322754 2.687593 137 130 110
-0.282549 1.285924 2.809140 175 168 156
-0.282549 1.285924 2.809140 175 168 156
-0.413212 1.315088 2.691034 136 127 110
-1.270062 3.968937 8.297263 167 159 138
-0.467553 1.276579 3.096064 188 180 152
-0.260947 1.313521 2.554864 205 204 155
-0.404783 1.312726 2.703776 22 18 7
-0.309628 1.263850 2.990003 53 42 27
-1.236900 4.053261 8.432090 147 142 119
-0.306931 1.261457 2.914701 182 168 141
-2.331437 -2.041078 4.610801 57 60 87
0.217581 0.607250 1.584641 159 107 100
-1.001014 -1.088524 3.342287 78 52 54
-12.544250 7.610020 16.067484 33 27 18
-1.144392 1.597866 4.001043 27 19 12
-3.103270 6.221634 9.063724 124 122 100
-12.579819 7.600422 16.130363 153 143 134
-0.309631 1.659560 4.459494 23 17 9
-12.591440 7.581160 16.179430 31 24 9
-12.591440 7.581160 16.179430 31 24 9
-1.338338 1.586748 3.875874 153 145 124
-1.331521 1.595857 3.845898 162 151 127
-3.122052 6.123806 9.020414 33 31 14
-1.134204 1.600013 3.986812 164 150 129
-0.289657 1.646028 4.093105 152 140 111
-15.701561 9.616107 20.244987 147 134 101
-3.116531 6.056890 8.942724 137 125 104
-3.104211 5.917401 8.871950 134 124 97
-2.473212 4.854082 7.048510 122 122 107
-3.131446 6.044799 8.906882 33 29 17
-0.729172 1.613232 2.585175 34 19 5
-3.131966 6.001297 8.878707 133 126 108
-0.465984 1.654747 2.745158 156 150 138
-3.145098 2.258859 5.201428 40 27 19
-0.281948 1.647495 3.854754 40 33 22
-3.135912 5.925900 8.780292 139 138 110
-2.759376 5.991686 9.799217 177 160 128
-0.340045 1.648157 4.609388 32 27 16
-0.366745 1.667749 4.899872 148 133 103
-1.405293 1.579142 3.899157 43 30 21
-1.404410 1.585632 3.886681 49 40 29
-1.404410 1.585632 3.886681 49 40 29
-8.739261 5.457881 11.380145 54 41 25
-12.459331 7.590166 16.230112 138 130 108
-10.304732 6.317163 13.470387 28 18 8
-1.258434 7.618941 16.226805 43 36 34
-12.421424 7.556458 16.293554 46 37 23
-8.244839 5.017854 10.815692 46 37 23
-8.269658 3.878877 10.853795 20 14 6
-1.156414 1.633257 3.112215 161 147 110
-1.091069 1.633678 2.936011 163 154 127
-1.428998 1.593036 3.825433 33 22 18
-7.761586 3.621838 10.208138 162 153 131
-2.940835 5.980802 10.618675 21 17 5
-0.721145 1.610663 2.602445 187 177 140
-9.464106 4.478076 12.458309 177 168 147
-12.312470 7.681266 16.219616 57 44 27
-11.931217 7.784371 15.745035 30 23 14
-0.476503 1.616256 2.764827 164 156 138
-15.160525 9.721834 20.069878 43 31 9
-1.140475 1.624663 2.980294 177 166 139
-2.715301 5.994636 9.838380 175 170 134
-0.480819 1.611983 2.772124 11 10 2
-0.475083 1.656282 2.738477 136 130 115
-2.715301 5.994636 9.838380 175 170 134
-2.706227 6.013226 9.819868 23 15 8
-2.706227 6.013226 9.819868 23 15 8
-0.476287 1.687374 2.731157 142 130 105
-1.150149 1.619600 2.979863 18 10 12
-15.279291 9.579695 20.333290 29 22 1
-0.248817 1.617590 2.942612 154 145 118
-1.151035 1.621586 2.968916 150 134 111
-0.603260 1.633376 3.429587 152 140 112
-8.698374 5.390895 11.607871 33 23 6
-0.603260 1.633376 3.429587 152 140 112
-1.204807 2.182927 3.099842 129 124 104
-0.484461 1.624101 2.747628 157 152 129
-1.466628 1.582416 3.753173 50 35 16
-15.280335 9.660015 20.438414 32 24 7
-3.320040 2.380799 5.589249 141 133 108
-0.484461 1.624101 2.747628 157 152 129
-0.650558 1.620319 3.681743 169 159 134
-0.705423 1.611116 2.598089 20 18 5
-1.208611 1.622239 3.059335 164 157 128
-0.258635 1.602736 2.943807 173 162 131
-0.261691 1.609070 2.940974 25 19 8
-0.827239 1.626472 3.060055 147 135 102
-1.479754 1.584942 3.695756 143 131 109
-7.562738 4.726473 10.231207 42 29 21
-1.156364 1.624674 2.885124 157 142 118
-0.244343 1.648201 2.709233 202 193 142
-6.640277 4.257935 8.992073 36 24 7
-0.978386 1.620028 3.637997 138 133 104
-0.978386 1.620028 3.637997 138 133 104
-0.643789 1.549330 2.399562 118 112 99
-0.690119 1.634636 2.584853 159 149 115
-1.161014 1.616030 2.845948 170 164 145
-1.161014 1.616030 2.845948 170 164 145
-1.299091 1.609100 3.178747 163 150 110
-8.673906 5.409979 11.820106 148 140 116
-0.485920 1.671583 2.725518 142 134 121
-1.300672 1.619269 3.179936 30 26 11
-8.608742 5.468447 11.746804 142 132 108
-1.177880 1.613768 2.876409 166 153 131
-1.492396 1.578341 3.636122 19 10 0
-2.575939 1.389692 4.379494 24 16 8
-1.179094 1.630914 2.866403 167 158 128
-1.502568 1.571676 3.641353 22 12 5
-0.686913 1.627165 2.592104 31 28 19
-0.686913 1.627165 2.592104 31 28 19
-0.686913 1.627165 2.592104 31 28 19
-0.493995 1.604214 2.767450 27 23 13
-0.273616 1.632036 2.912837 130 122 108
-0.712611 1.588215 2.697979 74 60 34
-1.344422 3.280649 5.089560 121 113 99
-0.234387 1.636616 2.481991 94 86 76
-0.496689 1.602746 2.777436 138 134 107
-0.275414 1.639832 2.907673 48 40 28
-0.236580 1.641878 2.486869 78 75 90
-0.279100 1.607635 2.928814 146 137 120
-0.333562 1.629012 3.481074 19 14 6
-1.203392 1.640926 2.884977 47 34 19
-6.006421 3.775754 8.251303 16 8 0
-0.280311 1.626639 2.911726 40 28 26
-0.280864 1.632328 2.904565 147 139 121
-0.280864 1.632328 2.904565 147 139 121
-0.678633 1.631360 2.596409 155 145 121
-2.913320 2.082047 4.988323 24 17 7
-1.636091 1.519751 3.868357 157 148 131
-1.503004 1.595989 3.543043 40 32 22
-5.976879 3.799634 8.260404 156 146 125
-0.491471 1.657839 2.726963 132 128 110
-1.648518 1.503020 3.867126 171 157 134
-0.495532 1.617956 2.743472 30 23 20
-1.496203 1.612956 3.505807 147 141 120
-1.583425 1.466164 3.708265 153 140 118
-0.673545 1.650566 2.600332 21 18 7
-1.656858 1.477358 3.876271 51 40 15
-0.286869 1.621115 2.907756 157 143 116
-1.650511 1.584413 3.846273 117 112 97
-1.650511 1.584413 3.846273 117 112 97
-0.504673 1.597834 2.784715 155 152 137
-7.502550 4.743392 10.412929 18 9 3
-6.657045 4.211310 9.240262 18 9 3
-1.675022 1.448143 3.886824 57 43 27
-1.516595 1.591210 3.517587 21 7 0
-1.513827 1.601918 3.503323 32 23 9
-0.666709 1.621077 3.657990 23 18 8
-2.498520 1.110485 4.306312 22 17 2
-1.380713 1.628265 3.177863 170 154 128
-6.604323 4.297501 9.208485 129 116 93
-6.604323 4.297501 9.208485 129 116 93
-1.496447 1.619635 3.429433 156 143 117
-1.666899 1.522890 3.818173 154 146 130
-1.669699 1.514723 3.820255 53 45 13
-1.385412 1.622399 3.169881 37 34 24
-1.519275 1.597234 3.471786 48 31 9
-5.850339 3.955040 8.177505 38 28 15
-1.673706 -0.882363 3.825850 78 100 130
-0.503383 1.625649 2.732376 33 22 15
-0.664079 1.653229 2.601168 141 134 121
-0.664079 1.653229 2.601168 141 134 121
-1.533993 1.582992 3.479076 151 143 116
-1.677936 1.523852 3.803190 145 134 112
-5.385321 3.422058 7.552291 34 22 12
-0.297852 1.604882 2.918802 147 138 114
-1.690384 1.479615 3.798494 44 33 7
-2.497837 5.873667 9.835652 156 145 124
-1.687876 1.525225 3.784658 158 149 114
-0.298019 1.634520 2.891072 144 141 127
-0.677388 1.621618 3.650212 156 146 116
-1.527816 1.602290 3.406672 20 14 1
-1.688693 1.566074 3.757739 158 150 112
-1.688693 1.566074 3.757739 158 150 112
-0.299335 1.623014 2.896730 154 146 116
-5.359129 3.443860 7.561211 159 147 126
-1.693533 1.560998 3.746909 158 151 122
-7.431849 4.808347 10.500978 26 16 5
-0.304268 1.616905 2.897050 34 26 6
-1.019046 2.652666 4.117617 138 130 120
-1.709592 1.517295 3.748923 36 25 3
-0.273004 1.639380 2.583842 199 194 129
-5.906395 3.777372 8.369579 30 18 11
-1.719728 1.454703 3.767090 142 131 113
-0.308629 1.610943 2.897643 163 157 126
-0.511840 1.615849 2.734930 167 157 132
-5.895678 3.756531 8.368093 148 142 118
-5.895678 3.756531 8.368093 148 142 118
-1.717372 1.488977 3.746480 149 142 121
-6.563253 4.256672 9.320964 148 131 105
-2.720793 2.001850 4.770666 144 131 105
-1.696408 1.573856 3.697304 138 130 111
-0.311158 1.618275 2.892251 153 142 117
-0.512057 1.630101 2.722790 160 146 119
-0.417625 1.636246 3.846670 133 124 97
-1.728867 1.455222 3.746356 146 135 114
-0.315212 1.612206 2.892077 40 29 6
-1.705660 1.574876 3.673839 157 145 128
-0.520638 1.620422 2.721510 28 23 18
-0.525890 1.608038 2.745223 62 56 36
-0.525890 1.608038 2.745223 62 56 36
-1.078811 2.823695 4.451893 133 129 117
-0.320526 1.608077 2.895262 160 144 124
-5.886582 3.794974 8.451213 13 10 4
-4.887851 3.151532 7.017506 13 10 4
-1.750740 1.456353 3.713323 149 142 121
-5.303140 6.061875 11.219494 169 157 141
-1.764457 1.405523 3.728127 146 130 112
-0.322700 1.613767 2.887149 159 151 118
-1.764457 1.405523 3.728127 146 130 112
-0.321300 1.637554 2.871338 146 140 126
-4.751414 2.357805 6.845954 56 47 37
-0.703467 1.621651 3.625756 19 13 2
-0.525018 1.638810 2.703816 150 144 121
-1.773073 1.388615 3.727992 144 138 114
-1.763378 1.455563 3.700235 142 131 108
-0.273351 1.383900 2.400463 135 134 107
-0.324617 1.652378 2.861719 135 134 107
-1.891436 1.294607 3.941152 159 152 129
-5.850136 3.780758 8.458381 22 18 8
-4.573566 2.249307 6.615208 22 18 9
-6.856704 5.899429 12.261106 176 164 139
-2.512859 1.030172 4.494397 42 35 22
-2.512859 1.030172 4.494397 42 35 22
-1.772014 1.453835 3.677209 154 143 117
-0.328465 1.638106 2.863898 148 145 125
-0.331940 1.602755 2.891761 166 158 140
-1.679653 1.581306 3.474550 16 12 2
-1.010791 2.718163 4.311912 127 124 115
-0.530515 1.618016 2.718125 126 120 108
-4.554373 2.256354 6.609180 156 142 119
-1.683308 1.582598 3.478415 24 19 10
-1.774302 1.489548 3.660719 140 129 109
-0.527385 1.645978 2.697845 161 147 120
-2.687858 2.019619 4.821968 33 26 5
-1.977410 1.337719 4.078540 49 38 17
-1.777037 1.480812 3.661364 39 31 10
-1.682341 1.581193 3.461378 142 132 111
-0.531374 1.621384 2.711899 23 18 11
-1.785008 1.452444 3.662409 145 133 108
-0.539057 1.611905 2.742772 70 53 32
-0.539057 1.611905 2.742772 70 53 32
-0.335464 1.614000 2.873605 171 156 133
-1.722691 1.379785 3.523200 29 21 10
-0.335965 1.632296 2.860883 31 28 13
-0.335165 1.664159 2.852050 127 124 113
-1.790952 1.433555 3.662379 29 21 10
-1.802479 1.389396 3.682983 153 131 111
-1.686847 1.585229 3.447161 140 132 104
-4.544247 2.246926 6.639154 30 22 4
-2.498084 1.041743 4.511595 137 127 101
-0.338510 1.608918 2.877064 38 21 8
-0.338510 1.608918 2.877064 38 21 8
-1.678101 1.612945 3.413312 34 27 25
-1.794261 1.451468 3.641335 155 139 113
-1.794261 1.451468 3.641335 155 139 113
-0.337791 1.640716 2.858555 147 140 124
-0.343559 1.605200 2.882028 170 165 141
-0.342174 1.615755 2.869028 29 16 1
-1.837473 1.306698 3.710339 45 39 20
-0.537701 1.634296 2.698850 29 26 23
-0.537701 1.634296 2.698850 29 26 23
-0.539155 1.619160 2.706411 161 158 126
-2.188627 1.638270 3.978771 149 138 111
-4.392621 2.981083 6.464228 149 132 109
-0.956050 2.634704 4.200110 127 127 115
-0.345727 1.629219 2.857141 152 146 125
-1.816270 1.434281 3.631863 22 12 1
-1.891022 1.492376 3.780907 22 12 1
-0.347569 1.622180 2.858880 30 19 6
-4.526955 2.250734 6.676377 28 23 10
-0.347569 1.622180 2.858880 30 19 6
-6.572952 6.532194 13.111293 158 146 119
-2.371983 0.986038 4.329325 41 31 28
-0.349246 1.616599 2.863067 165 158 146
-2.371983 0.986038 4.329325 41 31 28
-0.545062 1.622028 2.702031 44 32 14
-2.152146 1.158144 3.936080 152 142 110
-4.775596 3.204979 7.060700 46 40 24
-2.396110 1.811832 4.386330 150 139 121
-1.821779 1.525367 3.604108 132 122 102
-0.544908 1.626372 2.690040 163 152 130
-5.227984 3.469913 7.738728 144 133 104
-0.943055 2.666138 4.223173 127 120 104
-1.844305 1.381788 3.634822 152 138 106
-2.170288 1.667679 3.984689 134 122 94
-1.830559 1.469570 3.597749 119 112 91
-0.551165 1.609446 2.713083 32 25 14
-1.995631 1.577453 3.912269 145 131 108
-2.386899 1.799081 4.393032 142 128 110
-2.169576 1.636995 3.993798 142 128 110
-1.852876 1.372334 3.625837 148 133 109
-0.763569 1.633105 3.740985 51 42 35
-1.868500 1.327434 3.632395 155 141 119
-4.482513 2.243403 6.683145 32 25 11
-1.863560 1.370203 3.613167 154 138 112
-2.071063 1.569128 3.832041 47 35 14
-0.360364 1.630832 2.845752 155 148 130
-2.064157 1.575696 3.826393 151 139 115
-0.361916 1.638390 2.843317 20 8 3
-0.552805 1.634634 4.316583 167 149 133
-2.110610 1.656406 4.050684 35 28 15
-4.008570 2.029877 6.009300 52 42 15
-2.113898 1.646839 4.052318 140 129 103
-0.486671 1.639973 3.768477 159 144 114
-0.578777 1.606882 2.695626 17 11 1
-0.762906 1.626880 3.552599 154 144 125
-2.027712 1.555958 3.876949 26 18 7
-6.778301 6.113346 12.972235 163 153 128
-0.368409 1.634803 2.835248 150 142 120
-0.572883 1.610814 2.692667 159 154 136
-0.372702 1.611182 2.850496 158 148 129
-0.564178 1.600019 2.734871 30 21 9
-0.568545 1.636314 2.677811 143 130 105
-0.568545 1.636314 2.677811 143 130 105
-0.371078 1.646608 2.831314 134 128 110
-0.371078 1.646608 2.831314 134 128 110
-0.372080 1.653817 2.826833 53 45 27
-0.832721 1.615403 3.927567 145 137 95
-0.567561 1.612380 2.701088 18 15 3
-4.738298 3.135040 7.143864 28 21 12
-4.368353 2.891998 6.586724 28 21 12
-2.250488 1.699947 4.205535 24 19 9
-2.150180 1.625185 4.018527 24 19 9
-0.564665 1.617443 2.690777 23 18 11
-4.290640 2.175641 6.478202 170 154 136
-0.589642 1.597736 2.811342 179 173 157
-0.559896 1.631647 2.681017 17 16 12
-0.559896 1.631647 2.681017 17 16 12
-2.409876 1.904382 4.536156 57 48 33
-0.377346 1.664009 2.819917 41 28 18
-0.557618 1.623598 2.684616 136 129 107
-0.378315 1.646416 2.823887 153 146 129
-2.470639 1.923486 4.640143 42 33 19
-6.244733 6.098631 11.730348 61 47 12
-0.381761 1.618659 2.834853 130 124 107
2.291249 1.745786 3.093384 137 137 95
2.052768 1.721484 2.826926 151 138 117
2.265703 1.691091 3.274237 163 162 114
2.235985 1.753750 3.235126 126 122 76
1.948566 1.726422 2.834858 142 141 123
2.166399 1.763946 3.323376 139 126 95
1.768911 1.722320 2.730596 156 140 108
1.884800 1.749533 2.952053 149 140 88
2.123664 1.767882 3.347680 145 142 97
2.085591 1.785905 3.458027 133 131 104
2.131733 1.671125 3.561746 206 193 140
-4.123272 2.085583 6.269265 23 17 6
2.075441 1.708445 3.498865 168 164 117
2.042590 1.776985 3.483800 149 137 90
2.042590 1.776985 3.483800 149 137 90
1.612433 1.496028 2.844704 143 141 124
1.525550 1.722732 2.711268 171 154 98
1.791938 1.771048 3.224944 153 147 113
1.993495 1.785375 3.632273 131 121 87
1.965446 1.789480 3.614036 136 137 85
1.754975 1.770740 3.245682 167 154 127
1.964554 1.712325 3.642623 149 141 124
1.491012 1.729583 2.800998 169 158 106
1.844054 1.782687 3.494286 142 141 114
1.930141 1.643069 3.717451 187 183 140
1.820523 1.775695 3.519530 160 144 94
1.918742 1.778998 3.720454 149 140 114
1.918742 1.778998 3.720454 149 140 114
1.983311 1.602405 3.905091 166 157 107
1.890776 1.780217 3.725227 145 142 95
1.965967 1.604311 3.896572 167 158 99
1.965967 1.604311 3.896572 167 158 99
1.890428 1.656860 3.764228 154 140 113
1.872874 1.776806 3.743362 146 135 93
1.879149 1.626094 3.789713 177 167 115
1.830242 1.631569 3.814362 177 169 119
-9.430789 -6.273004 14.399260 56 65 105
1.741873 1.764055 3.661317 42 33 25
1.805863 1.721763 3.811738 181 168 116
1.793399 1.676059 3.870846 178 159 113
1.758916 1.691833 3.892840 174 172 129
1.727195 1.692293 3.924196 176 163 114
1.694590 1.637153 4.090391 172 168 120
2.017761 1.783871 4.929106 139 129 114
1.158709 1.716970 2.853374 176 166 106
2.022945 1.684788 5.009409 134 125 103
1.538594 1.706730 3.817673 160 157 135
1.002749 1.716405 2.520196 168 168 114
1.002749 1.716405 2.520196 168 168 114
1.636394 1.695079 4.141062 46 47 41
1.155456 1.723976 2.935413 166 160 102
1.155257 1.724362 2.936565 166 157 102
0.955950 1.707018 2.438739 172 167 107
1.152305 1.717569 2.962358 155 143 101
1.907258 1.714733 4.911089 23 20 5
1.253927 1.708046 3.227957 44 40 45
1.242904 1.707689 3.205472 171 161 115
-0.395699 1.637785 2.814072 151 139 117
1.126440 1.698517 2.971385 175 159 117
1.866589 1.695970 4.935530 143 132 116
1.650411 1.709151 4.363861 167 154 98
1.268812 1.709596 3.358931 166 144 113
1.852381 1.702516 4.911288 24 22 7
1.791297 1.643687 4.883574 116 113 99
-0.397880 1.644018 2.811399 41 21 13
1.481408 1.699959 4.088040 155 141 97
1.549639 1.710832 4.278510 154 146 102
1.707087 1.685872 4.721388 40 30 19
1.364599 1.680112 3.806163 153 142 108
1.671463 1.740539 4.669866 100 92 75
1.736346 1.641168 4.859159 135 124 100
1.518557 1.708993 4.257527 158 145 118
1.384079 1.674861 3.905370 156 155 104
-0.529536 1.634269 3.723630 21 16 8
-7.965498 -5.342776 12.263941 152 152 159
-4.310041 2.884835 6.637083 24 17 8
1.664892 1.658980 4.704576 37 35 20
1.655436 1.695426 4.682497 141 130 104
1.626412 1.752345 4.605497 33 24 12
1.646429 1.706391 4.671048 29 23 12
-0.399780 1.619173 2.815071 155 146 124
1.656072 1.660363 4.704202 28 21 7
1.656961 1.651441 4.715901 141 130 107
1.049145 1.708374 2.995059 174 166 111
1.640562 1.658278 4.693388 141 131 112
1.614492 1.730225 4.615686 42 36 28
1.614492 1.730225 4.615686 42 36 28
1.047161 1.706142 3.002306 174 171 138
1.578264 1.716306 4.584258 136 127 108
1.609276 1.647792 4.691913 123 116 92
1.564282 1.704326 4.585476 139 133 120
1.297003 1.685066 3.810562 160 152 107
1.508374 1.705248 4.510789 130 122 109
1.487739 1.663082 4.553557 141 135 114
1.634214 1.712558 5.035334 102 99 78
1.445801 1.669409 4.470543 144 132 119
0.810665 1.688276 2.555216 183 177 119
1.145246 1.677777 3.719832 183 177 145
1.316833 1.673501 4.342301 21 12 3
1.268246 1.712007 4.276024 132 121 102
1.253080 1.706913 4.262859 13 9 0
1.253080 1.706913 4.262859 13 9 0
1.259055 1.666417 4.297901 37 25 24
1.262385 1.655123 4.314500 156 141 116
1.264944 1.647707 4.334192 25 22 8
1.238808 1.699129 4.250564 129 117 97
-4.650220 3.204262 7.196263 118 106 81
-5.078227 3.495048 7.857066 118 106 81
0.827942 1.126228 2.915134 115 114 100
2.219806 3.203303 7.926898 139 132 117
-0.410634 1.623826 2.814926 146 140 118
1.141012 1.652955 4.210214 123 116 97
1.123181 1.663165 4.164639 33 19 11
1.151503 1.644191 4.276032 132 124 90
1.106171 1.655280 4.161859 157 145 129
1.106827 1.642379 4.175132 38 30 19
1.106827 1.642379 4.175132 38 30 19
1.093816 1.671073 4.130020 22 10 0
1.095530 1.655830 4.173122 25 22 6
1.090056 1.642783 4.171750 156 142 112
0.917233 1.663845 3.517572 170 171 100
1.060951 1.672065 4.100085 125 114 100
0.998079 1.703635 4.029116 131 125 113
0.739505 1.678136 2.987827 185 178 119
0.986619 1.701435 4.018663 24 21 9
0.986619 1.701435 4.018663 24 21 9
0.987655 1.646464 4.055152 27 24 17
0.987655 1.646464 4.055152 27 24 17
0.661687 1.691593 2.742403 186 178 137
-4.291094 2.888319 6.660810 28 21 8
-4.291094 2.888319 6.660810 28 21 8
0.875866 1.666616 3.704948 178 158 111
1.095374 1.693243 4.649873 29 22 18
0.918039 1.708676 3.949937 116 107 90
0.914935 1.675700 3.960155 12 6 0
0.903841 1.661233 3.957925 24 16 7
0.885801 1.655002 3.942637 149 132 103
1.656810 3.130311 7.393646 29 23 8
0.871190 1.708844 3.905499 38 26 20
0.858918 1.709128 3.893376 146 126 112
0.880122 1.630388 4.003063 151 145 119
0.969508 1.673863 4.466947 132 120 111
0.828406 1.692922 3.816779 187 174 128
0.844457 1.665491 3.893193 111 105 90
0.845659 1.646088 3.913724 113 110 95
0.827451 1.681219 3.869724 118 111 95
0.827451 1.681219 3.869724 118 111 95
0.615806 1.679241 3.002952 175 177 129
0.777058 1.648183 3.843197 113 110 86
-0.556018 1.623961 3.733160 24 14 4
0.777058 1.648183 3.843197 113 110 86
0.777058 1.648183 3.843197 113 110 86
0.766195 1.696829 3.806367 36 22 17
0.769176 1.665037 3.824360 142 130 114
0.568858 1.682308 2.833000 191 184 129
0.761299 1.667100 3.808814 35 25 5
0.615603 1.675337 3.150685 194 182 119
0.552813 1.679214 2.833194 183 180 137
0.637798 1.668396 3.282676 194 182 135
0.740085 1.626688 3.821905 38 29 8
1.338286 3.039829 6.944868 30 17 1
0.736747 1.637442 3.810836 160 142 120
0.640557 1.665999 3.312441 198 184 146
0.729402 1.645415 3.791581 39 32 23
0.723319 1.657075 3.782990 142 129 111
0.718776 1.634282 3.799211 22 16 2
0.704717 1.681614 3.755452 141 126 102
0.702706 1.689365 3.746416 28 20 11
0.705570 1.626541 3.802427 40 27 20
0.590699 1.664564 3.268712 181 173 119
0.676106 1.624776 3.770742 165 155 127
0.637915 1.691512 3.640385 177 152 107
-0.416230 1.691422 2.778258 25 9 1
0.640462 1.652496 3.711505 17 14 8
0.640462 1.652496 3.711505 17 14 8
0.658238 1.621394 3.829873 134 124 104
0.436088 1.681514 2.576224 193 182 125
0.586801 1.613826 3.712372 48 47 20
0.574097 1.629772 3.666644 149 139 112
0.693727 1.678724 4.439444 152 137 103
0.574506 1.624702 3.680299 42 35 18
0.556915 1.630086 3.647709 149 139 116
0.551465 1.668710 3.636231 38 26 9
-0.422612 1.608645 2.812178 166 155 132
0.729059 2.241713 4.891165 148 134 111
0.523594 1.640414 3.607185 45 40 16
0.523594 1.640414 3.607185 45 40 16
-3.447967 1.771706 5.400200 29 22 5
-3.447967 1.771706 5.400200 29 22 5
0.508217 1.666832 3.583274 104 98 83
-0.419729 1.681980 2.777797 153 137 120
0.396693 1.673310 2.902992 182 177 132
0.315605 1.622071 2.338458 196 188 135
0.315402 1.622322 2.338850 196 188 135
-0.427890 1.602019 2.826892 48 40 26
0.479385 1.613511 3.603344 49 42 16
0.479385 1.613511 3.603344 49 42 16
0.450722 1.608903 3.593274 160 148 122
0.450911 1.616197 3.735140 149 141 120
0.423698 1.617983 3.536370 162 156 128
0.418245 1.607103 3.545706 159 145 114
0.409489 1.613489 3.528805 40 35 10
0.474210 1.655905 4.111162 137 126 106
0.402246 1.661375 3.486306 146 136 111
0.402246 1.661375 3.486306 146 136 111
0.405182 1.619428 3.516343 151 136 114
0.393314 1.611783 3.521066 165 152 132
-0.427113 1.610685 2.807405 43 32 23
0.479745 1.667010 4.344584 127 120 99
0.479745 1.667010 4.344584 127 120 99
-3.946179 2.673285 6.206820 29 21 5
-3.679219 2.493940 5.787490 29 21 5
0.374370 1.655369 3.469110 146 132 110
0.377919 1.612680 3.516674 49 35 11
0.377919 1.612680 3.516674 49 35 11
-0.564715 1.631489 3.700441 169 155 121
0.377921 1.604584 3.563749 166 151 128
0.449603 1.668737 4.316588 122 116 94
0.283250 1.673515 2.724230 191 189 138
0.355971 1.641855 3.458548 22 15 6
0.467817 1.678681 4.670128 141 133 106
0.467817 1.678681 4.670128 141 133 106
0.348232 1.614402 3.485392 39 32 14
0.233306 1.669713 2.444172 191 188 140
0.427075 1.682667 4.611614 22 18 8
0.244256 1.666387 2.640680 193 189 131
0.312137 1.675170 3.402394 15 16 19
0.312137 1.675170 3.402394 15 16 19
-0.570594 1.618732 3.730987 162 146 121
0.310692 1.629425 3.429730 16 9 6
0.310692 1.629425 3.429730 16 9 6
0.302845 1.670846 3.396505 144 136 118
0.301592 1.627314 3.421284 144 141 125
0.301592 1.627314 3.421284 144 141 125
0.364289 1.664059 4.262734 13 10 2
0.352424 1.666210 4.241899 148 138 108
0.270013 1.631123 3.393398 37 29 15
0.355559 1.677181 4.524686 118 105 80
0.191405 1.667791 2.435941 195 192 146
0.241610 1.655813 3.352752 7 7 2
0.241610 1.655813 3.352752 7 7 2
-3.643540 1.887720 5.764841 26 17 8
0.313866 1.673756 4.492736 153 139 113
0.289367 1.648939 4.221962 149 141 125
0.286348 1.653173 4.175005 146 131 101
0.229656 1.676870 3.330522 21 12 2
0.178481 1.665232 2.641779 181 184 164
0.268107 1.649405 4.189145 27 23 12
0.268107 1.649405 4.189145 27 23 12
0.261434 1.656309 4.178513 163 149 114
0.694903 5.649753 11.154430 38 33 5
0.251296 1.654174 4.176272 14 10 4
-0.427748 1.680628 2.770215 29 17 9
-0.427748 1.680628 2.770215 29 17 9
0.237893 1.652176 4.186994 150 139 102
0.234464 1.646945 4.201573 39 34 25
0.180444 1.629545 3.306044 149 135 97
0.180444 1.629545 3.306044 149 135 97
0.233433 1.659612 4.448495 25 17 12
0.161646 1.608223 3.312835 167 155 132
0.161775 1.604911 3.322775 57 49 21
0.200050 1.647245 4.168077 150 143 112
0.145243 1.602593 3.306930 178 166 134
0.127718 1.616379 3.270785 77 64 43
0.127718 1.616379 3.270785 77 64 43
0.120869 1.649944 3.239737 148 139 107
0.117095 1.638087 3.242566 160 146 119
1.145350 13.151414 32.141602 150 143 128
0.145177 1.648515 4.124875 29 22 17
0.101838 1.653128 2.945077 188 187 153
0.106004 1.624348 3.241899 37 23 10
0.106004 1.624348 3.241899 37 23 10
0.131976 1.652543 4.118059 140 129 101
0.096510 1.641707 3.221531 152 138 114
0.096546 1.602091 3.254745 34 30 7
0.094127 1.612383 3.241557 10 5 1
0.081856 1.652336 2.900152 190 190 148
0.121105 1.676159 4.483626 150 137 95
0.089200 1.606891 3.248552 166 151 131
0.081346 1.607355 3.236014 41 34 19
0.079437 1.601989 3.250591 22 19 3
0.072510 1.681829 3.185750 24 20 7
0.066391 1.657572 3.188968 32 30 10
0.081377 1.644195 4.020916 163 160 128
0.060697 1.649994 3.189028 152 141 124
-0.440590 1.613054 2.792356 138 130 105
0.018757 1.596702 3.236349 148 132 92
-0.586800 1.621823 3.708061 155 146 109
-0.586800 1.621823 3.708061 155 146 109
0.013752 1.606418 3.177301 35 27 22
0.010944 1.647016 2.795932 199 189 131
0.007510 1.663893 3.134891 136 130 111
0.002459 1.595688 3.206369 31 23 14
-0.011986 1.656493 2.602911 196 188 140
-0.028097 1.663580 4.540376 143 126 103
-0.020497 1.673263 3.107162 40 34 15
-0.053230 1.603872 3.392910 178 163 138
-0.053230 1.603872 3.392910 178 163 138
-0.271916 7.363569 15.079620 29 24 10
-0.271916 7.363569 15.079620 29 24 10
-0.048245 1.658459 2.512768 199 195 144
-0.072835 1.616180 3.091972 31 17 10
-0.067269 1.652702 2.608464 195 194 141
-0.407291 7.282334 14.909373 169 162 139
-0.081982 1.646579 2.836802 198 190 140
-0.760496 10.193933 24.013399 55 46 29
-0.100208 1.596418 3.097806 168 161 133
-0.100085 1.597905 3.081524 40 27 16
-0.100855 1.686968 3.044236 44 33 27
-0.100884 1.686807 3.044164 44 33 27
-0.502272 7.224439 14.805515 164 157 134
-0.159404 1.665356 4.596804 152 140 103
-0.107738 1.593117 3.093393 36 24 14
-0.115403 1.599543 3.065754 40 28 21
-0.596071 1.624743 3.704402 25 24 15
-0.119621 1.592812 3.099219 161 151 126
-0.093069 1.670602 2.345016 194 186 134
-0.120612 1.684196 3.032455 47 37 21
-0.122941 1.648502 3.039690 139 129 118
-0.124587 1.600663 3.063217 32 26 14
-0.614488 7.214839 14.753000 26 17 6
-0.131266 1.664768 3.026575 31 21 6
-0.131266 1.664768 3.026575 31 21 6
-0.180752 1.657246 4.089836 133 128 98
-0.142515 1.637500 3.022610 30 22 13
