ply
format ascii 1.0
element vertex 436
property float x
property float y
property float z
property uchar red
property uchar green
property uchar blue
end_header
-1.017810 0.439302 5.055082 148 136 151
-0.931179 0.245931 5.769732 38 33 57
-0.918434 0.212094 5.723230 20 17 26
-0.918434 0.212094 5.723230 20 17 26
-0.909583 0.170777 5.687682 165 157 144
-0.888388 0.236535 5.739236 66 54 70
-0.796358 -0.875885 5.641402 255 255 255
-0.845670 0.357101 6.039414 31 25 20
-0.574789 0.575559 4.139787 93 81 71
-0.574789 0.575559 4.139787 93 81 71
-0.825836 0.337177 6.046453 143 132 107
-0.825836 0.337177 6.046453 143 132 107
-0.822879 0.347497 6.042348 70 56 36
-0.822879 0.347497 6.042348 70 56 36
-0.813253 0.370220 6.041413 175 159 151
-0.796348 0.350637 6.056165 168 159 131
-0.794583 0.370039 6.048956 34 26 11
-0.794583 0.370039 6.048956 34 26 11
-0.796032 0.332528 6.079145 171 158 139
-0.790473 0.358925 6.058810 47 45 33
-0.790473 0.358925 6.058810 47 45 33
-0.749344 -0.718406 5.744184 125 54 76
-0.800021 -0.513800 6.136013 119 120 128
-0.765774 -0.403815 5.898059 157 149 155
-0.782692 0.370450 6.057185 32 30 18
-0.783064 -0.444214 6.073886 156 153 162
-0.777833 0.375972 6.055225 121 115 91
-0.777258 0.370632 6.067580 31 28 15
-0.778546 0.346372 6.093102 35 31 13
-0.776370 0.355248 6.075836 120 114 79
-0.776370 0.355248 6.075836 120 114 79
-0.748033 -0.635083 5.864284 125 96 92
-0.747688 -0.648201 5.865377 114 91 88
-0.772151 0.350754 6.083629 31 28 12
-0.774081 0.325754 6.117117 53 42 18
-0.781575 0.293128 6.180540 101 94 79
-0.775759 -0.529082 6.138844 134 122 125
-0.767926 -0.595658 6.077475 81 72 83
-0.769177 0.341164 6.100914 146 137 110
-0.771284 -0.474778 6.130499 151 145 152
-0.765151 -0.423050 6.090327 46 19 28
-0.766226 -0.562168 6.103262 16 16 25
-0.768903 -0.465498 6.147569 42 42 49
-0.767848 0.316106 6.144472 161 146 122
-0.758513 -0.565741 6.101747 137 125 134
-0.761082 -0.372699 6.165198 35 16 22
-0.761082 -0.372699 6.165198 35 16 22
-0.752950 -0.541885 6.112312 140 137 140
-0.755839 -0.454513 6.136882 151 144 151
-0.763125 0.307414 6.198345 111 102 85
-0.753149 -0.471256 6.125247 122 121 127
-0.722196 -0.646593 5.873809 109 54 75
-0.752093 -0.488494 6.148010 37 44 67
-0.747753 -0.427423 6.125795 45 47 56
-0.745264 -0.547216 6.121540 40 38 53
-0.745302 -0.482485 6.134050 136 136 140
-0.713380 -0.649579 5.883341 37 13 27
-0.742995 -0.528773 6.129754 138 145 163
-0.737538 -0.567053 6.093241 64 33 37
-0.742666 -0.455231 6.136356 119 119 129
-0.736956 -0.585929 6.092556 138 123 124
-0.742525 -0.490013 6.148839 142 141 146
-0.740945 -0.545689 6.137266 47 49 65
-0.740106 -0.539341 6.132363 112 115 125
-0.738316 -0.434604 6.118978 141 140 143
-0.708987 -0.711489 5.915722 145 104 122
-0.729157 -0.431335 6.120964 51 58 79
-0.724029 -0.335006 6.096255 64 58 48
-0.730179 -0.522379 6.151091 28 38 58
-0.725873 -0.472014 6.121817 138 137 139
-0.721415 -0.581556 6.089413 136 123 118
-0.721415 -0.581556 6.089413 136 123 118
-0.724327 -0.536605 6.117819 119 120 127
-0.724327 -0.536605 6.117819 119 120 127
-0.723762 -0.436621 6.119505 140 139 142
-0.696522 -0.706188 5.905344 38 19 31
-0.721738 -0.472205 6.127026 149 149 153
-0.719729 -0.424901 6.114028 144 143 149
-0.724433 -0.359111 6.165032 27 18 23
-0.717574 -0.447753 6.110875 143 142 145
-0.715520 -0.397507 6.117827 31 33 44
-0.714381 -0.413681 6.112933 47 46 59
-0.712145 -0.456434 6.114701 159 157 163
-0.713007 -0.383956 6.124490 139 138 142
-0.708735 -0.422138 6.114142 146 146 149
-0.706034 -0.450638 6.108687 56 63 73
-0.706798 -0.486823 6.134844 153 153 154
-0.705109 -0.388425 6.125355 48 59 79
-0.703699 -0.379910 6.123043 140 141 142
-0.700417 -0.387304 6.119592 140 140 146
-0.699097 -0.424207 6.112101 30 35 53
-0.713847 0.333564 6.242099 145 128 103
-0.699972 -0.404370 6.121074 76 82 93
-0.696590 -0.449085 6.099298 170 170 171
-0.680547 -0.648247 5.973823 36 15 27
-0.721055 0.293003 6.329465 34 24 12
-0.721055 0.293003 6.329465 34 24 12
-0.695539 -0.407208 6.116796 64 62 73
-0.703472 0.352638 6.211033 45 34 16
-0.690312 -0.430814 6.111028 66 77 96
-0.690312 -0.430814 6.111028 66 77 96
-0.674192 -0.637126 5.971838 24 14 24
-0.689611 -0.398193 6.115120 162 163 165
-0.687738 -0.373668 6.125503 52 67 86
-0.687738 -0.373668 6.125503 52 67 86
-0.670187 -0.674354 5.989829 33 16 28
-0.670187 -0.674354 5.989829 33 16 28
-0.684804 -0.389257 6.123998 56 71 88
-0.667475 -0.653692 5.974477 135 109 116
-0.684110 -0.444959 6.123734 65 79 104
-0.685324 -0.468160 6.155372 69 80 94
-0.704456 0.306297 6.347754 132 116 84
-0.690100 -0.504472 6.260920 50 51 62
-0.672842 -0.353957 6.118919 28 15 21
-0.673405 -0.397767 6.133573 28 32 43
-0.679409 -0.579358 6.215165 159 146 147
-0.671585 -0.454854 6.156199 58 74 99
-0.671585 -0.454854 6.156199 58 74 99
-0.667313 -0.379249 6.125824 64 78 100
-0.666115 -0.439645 6.164476 164 162 164
-0.667083 -0.761141 6.181883 33 34 53
-0.660255 -0.456162 6.191939 61 70 88
-0.660255 -0.456162 6.191939 61 70 88
-0.644652 -0.650344 6.056990 145 141 146
-0.657199 -0.753717 6.179889 18 23 39
-0.648943 -0.669713 6.109988 25 23 40
-0.648943 -0.669713 6.109988 25 23 40
-0.648943 -0.669713 6.109988 25 23 40
-0.650728 -0.384144 6.128481 38 40 49
-0.654040 -0.455920 6.198646 148 150 153
-0.652364 -0.754523 6.191352 133 134 148
-0.652364 -0.754523 6.191352 133 134 148
-0.641417 -0.675470 6.103839 119 119 126
-0.650349 -0.745981 6.189401 34 31 48
-0.636012 -0.642835 6.061413 130 125 131
-0.649250 -0.737503 6.188577 151 144 157
-0.649724 -0.446984 6.205948 65 69 83
-0.660163 -0.499404 6.309012 105 97 103
-0.636206 -0.670843 6.105715 27 27 48
-0.636206 -0.670843 6.105715 27 27 48
-0.644535 -0.746105 6.196872 142 137 144
-0.635370 -0.681784 6.111458 36 39 58
-0.635370 -0.681784 6.111458 36 39 58
-0.627880 -0.642446 6.066796 34 33 48
-0.627880 -0.642446 6.066796 34 33 48
-0.642643 -0.434709 6.221099 61 68 82
-0.642643 -0.434709 6.221099 61 68 82
-0.629420 -0.675909 6.104885 138 137 146
-0.629420 -0.675909 6.104885 138 137 146
1.064555 0.527700 7.548815 139 123 88
-0.648089 -0.491260 6.307849 66 56 58
-0.642410 -0.462535 6.257955 149 147 153
-0.637841 -0.430005 6.227512 163 162 166
1.062458 0.532697 7.550480 133 118 87
-0.624803 -0.659891 6.104327 34 35 47
-0.638992 -0.416666 6.249645 53 72 96
1.062458 0.532697 7.550480 133 118 87
-0.623493 -0.670619 6.104112 29 30 49
-0.623493 -0.670619 6.104112 29 30 49
-0.619548 -0.641777 6.068000 157 155 164
-0.618982 -0.634835 6.068639 21 18 29
-0.618455 -0.653693 6.101101 132 130 141
-0.618455 -0.653693 6.101101 132 130 141
-0.618015 -0.664724 6.104015 156 153 162
-0.617784 -0.674058 6.104918 146 145 155
1.055384 0.533112 7.558146 39 32 23
-0.631804 -0.416677 6.251770 155 154 159
-0.612381 -0.658961 6.105902 28 31 58
-0.625882 -0.555679 6.248133 95 57 66
-0.626779 -0.426371 6.264832 164 159 163
-0.605748 -0.652718 6.101398 147 144 156
-0.605748 -0.652718 6.101398 147 144 156
-0.605748 -0.652718 6.101398 147 144 156
-0.605814 -0.662670 6.107017 151 150 157
-0.637815 -0.483902 6.434801 155 147 145
-0.621917 -0.414785 6.274435 55 67 87
-0.629852 -0.500375 6.385365 138 128 124
-0.637129 0.323076 6.496419 125 112 92
-0.596772 -0.638636 6.085454 142 144 149
-0.607009 -0.671318 6.196912 96 100 113
-0.628136 0.351444 6.442608 41 36 17
-0.622587 -0.489475 6.394041 153 138 138
-0.593587 -0.651446 6.098229 155 155 165
-0.589927 -0.639174 6.091285 27 32 51
-0.610227 -0.404840 6.323006 42 48 63
-0.624543 0.340691 6.477219 39 33 15
-0.614664 0.392868 6.400023 117 105 79
-0.583572 -0.640083 6.100818 158 161 167
-0.612447 -0.500281 6.422513 157 148 151
-0.612447 -0.500281 6.422513 157 148 151
-0.612469 -0.467068 6.431756 61 66 77
-0.608657 -0.486784 6.404216 140 128 130
-0.609265 -0.472318 6.440895 144 144 150
-0.618848 0.320275 6.575496 134 124 102
-0.618848 0.320275 6.575496 134 124 102
-0.604604 -0.452381 6.430207 145 142 143
-0.597681 -0.591802 6.365553 120 105 106
-0.603836 0.381763 6.448337 128 115 88
-0.603836 0.381763 6.448337 128 115 88
-0.600458 -0.443615 6.429696 162 158 160
1.039378 0.533419 7.536694 43 37 34
-0.589875 -0.556270 6.379370 56 68 92
-0.593455 -0.446247 6.419544 64 72 83
-0.592082 -0.523940 6.407430 150 141 149
-0.591865 -0.473418 6.434000 148 146 148
-0.588398 -0.535148 6.397380 145 142 153
-0.590475 -0.452768 6.425830 148 145 143
-0.590475 -0.452768 6.425830 148 145 143
-0.586057 -0.593253 6.382607 130 115 123
-0.593822 0.382413 6.467037 125 112 91
-0.589176 -0.399276 6.429233 151 147 150
-0.589176 -0.399276 6.429233 151 147 150
-0.582688 -0.579701 6.374933 143 130 135
-0.585834 -0.508627 6.411046 126 125 130
1.029883 0.553605 7.488644 30 16 11
-0.581725 -0.554586 6.381515 141 135 143
-0.581725 -0.554586 6.381515 141 135 143
-0.595872 0.343845 6.559221 40 37 22
-0.595872 0.343845 6.559221 40 37 22
-0.580117 -0.500055 6.399168 85 61 64
-0.577739 -0.587371 6.386211 86 59 61
-0.611672 0.273033 6.773664 36 29 13
-0.576346 -0.573369 6.382246 60 33 51
-0.610218 0.275293 6.776947 37 30 15
-0.579181 -0.432897 6.444448 153 152 154
-0.571369 -0.578532 6.380093 136 121 126
-0.576472 -0.441396 6.441551 67 81 95
-0.576472 -0.441396 6.441551 67 81 95
-0.572206 0.446073 6.408552 117 106 79
-0.572903 -0.437454 6.441981 74 81 98
-0.576872 -0.479541 6.501959 38 32 40
1.019563 0.577127 7.511722 34 29 30
-0.565238 -0.580249 6.388085 85 55 60
-0.566389 -0.493670 6.444458 134 122 129
-0.566389 -0.493670 6.444458 134 122 129
1.019563 0.577127 7.511722 34 29 30
-0.566837 -0.436839 6.459033 151 148 149
-0.564677 0.435654 6.447185 124 109 83
-0.564471 -0.447960 6.460774 66 69 80
-0.557779 -0.559111 6.417634 52 62 89
-0.562094 -0.390886 6.493697 63 65 75
-0.553636 -0.582483 6.421844 90 57 63
-0.584577 0.311233 6.789559 52 46 32
-0.555472 0.442690 6.462991 118 107 85
-0.547647 -0.573892 6.411503 146 136 136
-0.547647 -0.573892 6.411503 146 136 136
-0.563301 -0.473239 6.610238 54 55 61
-0.553505 0.390878 6.578393 129 114 93
-0.546631 -0.428382 6.525947 36 36 43
-0.536481 0.506178 6.413749 122 110 86
-0.539963 -0.418307 6.498238 153 150 152
-0.540715 -0.438143 6.525018 54 57 64
-0.540715 -0.438143 6.525018 54 57 64
-0.532578 -0.575517 6.482924 152 139 142
-0.532578 -0.575517 6.482924 152 139 142
-0.534183 0.433732 6.540343 124 110 85
-0.532315 -0.396131 6.526225 143 143 144
-0.521144 -0.667347 6.422654 8 4 8
-0.515032 -0.740263 6.355052 24 22 26
-0.515032 -0.740263 6.355052 24 22 26
-0.521487 -0.663367 6.439688 14 9 13
-0.529273 -0.380065 6.535521 159 154 158
-0.514737 -0.717710 6.360863 26 23 22
-0.525100 -0.413058 6.513075 159 157 162
-0.521911 -0.598255 6.494407 132 120 128
-0.525199 -0.390614 6.534582 59 88 124
-0.523500 -0.438975 6.535939 56 77 104
-0.523500 -0.438975 6.535939 56 77 104
-0.526511 -0.469308 6.590272 37 41 52
-0.515721 -0.587216 6.493371 142 131 132
-0.515721 -0.587216 6.493371 142 131 132
0.995339 0.570850 7.487832 141 123 99
-0.500498 -0.717939 6.380152 20 13 17
-0.510981 -0.422953 6.520309 70 77 90
-0.498152 -0.749705 6.379241 18 17 21
-0.510363 -0.480932 6.554682 138 126 127
-0.510363 -0.480932 6.554682 138 126 127
-0.507508 0.482446 6.520550 128 111 88
-0.493860 -0.752770 6.373431 13 11 14
-0.493860 -0.752770 6.373431 13 11 14
-0.498533 -0.650810 6.463606 101 82 82
-0.503914 -0.443821 6.533129 149 147 148
-0.503381 -0.391403 6.553327 68 76 89
-0.503381 -0.391403 6.553327 68 76 89
-0.499392 -0.394213 6.551581 78 84 98
-0.490624 -0.654401 6.440423 17 8 13
-0.499175 -0.422123 6.567549 157 155 161
-0.496560 -0.407921 6.553398 159 156 158
-0.494927 -0.384772 6.546015 167 165 170
-0.489544 -0.428839 6.565003 54 79 110
-0.485440 -0.453125 6.579348 153 151 158
-0.483140 -0.437140 6.578973 162 161 159
-0.491832 -0.572029 6.701702 51 69 100
-0.491832 -0.572029 6.701702 51 69 100
-0.477703 -0.406621 6.574656 152 151 153
-0.476885 -0.435717 6.585996 58 72 88
-0.476885 -0.435717 6.585996 58 72 88
-0.475825 -0.415849 6.575328 64 76 97
-0.474801 -0.398131 6.573562 62 79 113
-0.473151 -0.494780 6.573020 143 133 132
-0.474061 -0.472222 6.631503 153 151 155
-0.468772 -0.607406 6.576755 120 106 105
-0.468572 -0.387574 6.586692 159 158 157
-0.464784 -0.399921 6.575978 165 164 176
-0.466873 -0.512536 6.620318 150 142 144
-0.457750 -0.603841 6.568359 137 127 129
-0.449799 -0.404656 6.583472 167 165 167
-0.449799 -0.404656 6.583472 167 165 167
-0.450669 -0.420273 6.599174 163 160 161
-0.443157 -0.573037 6.565012 89 58 63
-0.436366 -0.414056 6.612041 165 168 162
-0.433549 -0.420522 6.622268 68 80 100
-0.429066 -0.575853 6.636021 140 123 129
-0.421880 -0.418014 6.644386 64 82 105
-0.428458 0.513422 6.748894 107 102 92
-0.423852 -0.575997 6.688432 126 108 111
-0.423198 -0.430211 6.678136 140 136 144
-0.419540 -0.585304 6.672714 138 115 123
-0.416919 -0.407766 6.640535 67 81 108
-0.414012 -0.594697 6.662986 138 125 126
-0.420515 0.506786 6.800278 110 103 83
-0.405597 -0.672799 6.663741 99 80 77
-0.405597 -0.672799 6.663741 99 80 77
-0.394729 -0.380368 6.654381 25 17 18
-0.370573 -0.629242 6.637783 29 19 18
-0.345696 -0.907018 6.621156 49 39 45
-0.345696 -0.907018 6.621156 49 39 45
-0.338992 -0.901815 6.571933 48 36 40
-0.338992 -0.901815 6.571933 48 36 40
-0.333142 0.534262 7.259072 108 100 81
0.877119 0.627901 7.125496 38 31 26
-0.274445 0.515490 7.418273 80 73 57
-0.135470 0.628436 6.288002 16 12 3
-0.100203 0.615821 6.520680 43 37 26
-0.072577 0.702211 5.490058 81 80 48
-0.070690 0.651324 5.802618 82 69 49
-0.052922 0.650455 5.828828 134 124 91
-0.048120 0.670814 5.593487 178 166 142
-0.060103 0.517136 7.505212 104 91 63
-0.041400 0.672759 5.625571 168 158 135
-0.047671 0.520078 7.482519 108 94 68
-0.047671 0.520078 7.482519 108 94 68
-0.037124 0.649071 5.824898 28 25 9
-0.022848 0.676216 5.629097 34 37 20
-0.020504 0.690514 5.621354 135 123 106
-0.020504 0.690514 5.621354 135 123 106
-0.024425 -0.653665 7.602595 10 8 11
-0.017704 0.697590 5.622278 26 23 11
-0.019784 -0.551368 7.537639 21 28 44
-0.014106 0.668819 5.701305 42 34 21
-0.007434 0.680825 5.657721 106 104 90
-0.007031 0.599119 6.690487 94 86 67
-0.002357 0.694675 5.659443 25 23 13
-0.002357 0.694675 5.659443 25 23 13
-0.001760 0.664373 5.727196 169 157 142
0.006827 0.446590 7.975926 33 27 15
0.006827 0.446590 7.975926 33 27 15
0.004948 0.685993 5.700830 41 36 25
0.007206 0.647510 6.006015 56 45 18
0.015684 0.322397 8.265837 130 119 97
0.014192 0.668307 5.744004 164 161 131
0.014192 0.668307 5.744004 164 161 131
0.619271 0.654069 6.619052 51 44 55
0.063210 0.696492 5.472313 161 107 115
0.086076 0.586400 6.869922 134 119 93
0.076978 0.657577 5.919604 26 22 12
0.106590 0.428309 8.075097 90 81 67
0.075752 0.689312 5.570306 153 116 120
0.075752 0.689312 5.570306 153 116 120
0.102016 0.670795 5.951820 22 19 7
0.102016 0.670795 5.951820 22 19 7
0.113455 0.677039 5.967626 24 24 16
0.115678 0.695364 5.969665 100 100 98
0.115678 0.695364 5.969665 100 100 98
0.152209 0.448513 7.811572 51 48 46
0.152209 0.448513 7.811572 51 48 46
0.127920 0.620547 6.438448 51 44 36
0.128859 0.631775 6.164149 160 149 130
0.602380 0.554751 7.235506 22 15 6
0.133889 0.648732 6.064117 23 21 6
0.536725 0.655073 6.493795 124 95 92
0.162883 0.582350 6.927738 110 102 81
0.195395 0.378189 7.819515 85 69 47
0.157908 0.643158 6.135069 130 122 98
0.160839 0.650301 6.121427 29 24 10
0.190910 0.650991 6.184181 18 17 10
0.183806 0.687173 5.792854 190 175 145
0.183806 0.687173 5.792854 190 175 145
0.198079 0.630918 6.254706 167 155 133
0.484548 0.651078 6.452339 128 90 92
0.204315 0.682045 6.198870 85 76 66
0.207118 0.633310 6.268178 44 37 24
0.212905 0.637964 6.255694 142 135 119
0.514548 0.596371 6.987090 79 76 65
0.514548 0.596371 6.987090 79 76 65
0.513239 0.576947 7.007458 24 22 9
0.513239 0.576947 7.007458 24 22 9
0.267840 0.565786 7.104054 29 23 8
0.249402 0.673468 6.299572 121 112 101
0.249402 0.673468 6.299572 121 112 101
0.384196 0.629640 5.508270 37 39 44
0.251858 0.641616 6.338212 106 98 79
0.273805 0.589033 6.762889 39 33 22
0.277175 0.632449 6.403038 17 17 9
0.279837 0.624853 6.402771 97 89 80
0.456916 0.575089 6.912776 110 99 69
0.433802 0.633458 6.567693 134 83 88
0.252604 0.643398 5.479743 152 157 156
0.252293 0.648863 5.470379 26 34 42
0.444841 0.623115 6.805747 109 103 96
0.297881 0.653256 6.442550 107 95 77
0.298983 0.621457 6.466713 117 103 85
0.305590 0.667003 6.456603 31 25 13
0.305590 0.667003 6.456603 31 25 13
0.323600 0.586991 6.760337 43 37 21
0.263528 0.643503 5.451011 31 41 40
0.402744 0.640294 6.461879 63 47 53
0.418868 0.633459 6.731133 24 22 27
0.299422 0.663099 6.171546 75 86 74
0.420735 0.602917 6.770963 127 114 99
0.419202 0.609803 6.760429 21 18 10
0.270350 0.643813 5.458521 74 89 93
0.270350 0.643813 5.458521 74 89 93
0.412069 0.608478 6.741687 127 120 102
0.323364 0.639266 6.512054 124 115 94
0.407050 0.630547 6.708432 113 105 85
0.405957 0.604929 6.733425 30 22 10
0.405957 0.604929 6.733425 30 22 10
0.275885 0.633098 5.460345 90 100 108
0.275885 0.633098 5.460345 90 100 108
0.311577 0.667721 6.136006 180 173 109
0.280540 0.625211 5.469388 88 97 108
0.336991 0.645581 6.541720 115 103 82
0.337314 0.663075 6.179480 48 53 58
0.369904 0.613582 6.642439 36 33 24
-0.725713 -0.664738 5.886666 43 17 29
