ply
format ascii 1.0
element vertex 849
property float x
property float y
property float z
property uchar red
property uchar green
property uchar blue
end_header
-3.067218 0.949075 5.200888 24 22 18
-1.691921 -1.756029 4.635967 203 173 171
-1.630723 -1.788130 4.609937 255 255 255
-1.565836 -1.494707 4.790689 125 54 76
-1.667139 -1.002827 5.113841 124 109 113
-1.646526 -0.858152 5.063869 157 149 155
-1.571124 -1.466171 4.845421 40 11 29
-1.712084 -1.241153 5.282339 112 114 125
-1.712084 -1.241153 5.282339 112 114 125
-1.710787 -1.255645 5.291304 15 13 27
-1.705951 -0.960867 5.282649 156 153 162
-1.720836 -1.182152 5.350277 20 18 29
-1.586864 -1.341240 4.965532 125 96 92
-1.434683 -1.666077 4.502889 37 32 54
-1.558458 -1.450824 4.899635 117 51 69
-1.683005 -1.239113 5.303978 70 70 83
-1.694054 -1.151454 5.350922 134 122 125
-1.661814 -1.285776 5.249692 81 72 83
-1.560890 -1.395449 4.942849 33 16 31
-1.689062 -1.034342 5.358778 151 145 152
-1.673064 -0.918098 5.317076 46 19 28
-1.665256 -1.218199 5.294859 16 16 25
-1.656534 -1.240911 5.282436 26 24 35
-1.641440 -1.289668 5.243443 33 21 31
-1.694144 -0.812679 5.414384 126 101 107
-1.649263 -1.226583 5.295784 137 125 134
-1.549343 -1.353884 4.977534 26 12 27
-1.681426 -0.816360 5.438328 35 16 22
-1.681426 -0.816360 5.438328 35 16 22
-1.542217 -1.407802 4.993433 43 17 29
-1.641515 -1.177497 5.319265 140 137 140
-1.658885 -0.992024 5.377181 151 144 151
-1.650462 -1.027359 5.358396 122 121 127
-1.534121 -1.368221 4.981169 109 54 75
-1.650009 -1.067155 5.384488 37 44 67
-1.525455 -1.455232 4.982983 117 64 81
-1.643638 -0.933139 5.375278 45 47 56
-1.626713 -1.190869 5.333669 40 38 53
-1.518503 -1.400550 4.988509 131 66 82
-1.517124 -1.376460 4.995178 37 13 27
-1.624800 -1.152507 5.351044 138 145 163
-1.604562 -1.230173 5.291680 64 33 37
-1.631499 -0.994616 5.381797 119 119 129
-1.601671 -1.270377 5.285591 138 123 124
-1.509746 -1.462544 4.983447 41 4 15
-1.509746 -1.462544 4.983447 41 4 15
-1.630422 -1.071489 5.389741 142 141 146
-1.620872 -1.190347 5.358881 47 49 65
-1.618515 -1.175919 5.353232 112 115 125
-1.621486 -0.948333 5.365294 141 140 143
-1.581226 -1.274988 5.247143 74 47 51
-1.503000 -1.447804 4.987899 132 69 86
-1.507660 -1.509967 5.021994 145 104 122
-1.608454 -0.975405 5.367236 137 137 143
-1.605652 -0.883413 5.375342 110 104 107
-1.582432 -1.252757 5.297772 67 36 50
-1.603232 -0.942241 5.373216 51 58 79
-1.595365 -0.729728 5.364963 64 58 48
-1.602118 -1.142621 5.387759 28 38 58
-1.593177 -1.030793 5.364081 138 137 139
-1.569543 -1.262143 5.288598 136 123 118
-1.569543 -1.262143 5.288598 136 123 118
-1.583408 -1.169361 5.339037 119 120 127
-1.583408 -1.169361 5.339037 119 120 127
-1.591100 -0.953867 5.371202 140 139 142
-1.545759 -1.387384 5.230494 37 26 32
-1.481066 -1.498432 5.013318 38 19 31
-1.584796 -1.031862 5.371457 149 149 153
-1.582638 -0.928048 5.368055 144 143 149
-1.589455 -0.832368 5.402019 48 42 53
-1.575819 -0.977478 5.358023 143 142 145
-1.490943 -1.347786 5.074048 23 8 19
-1.480417 -1.356661 5.050680 118 61 76
-1.576056 -0.868847 5.381273 31 33 44
-1.572051 -0.903848 5.371391 47 46 59
-1.564889 -0.997393 5.364350 159 157 163
-1.573836 -0.840473 5.397930 139 138 142
-1.464114 -1.544514 5.022467 118 73 88
-1.560298 -0.923029 5.374319 146 146 149
-1.460288 -1.508170 5.030570 117 70 88
-1.551430 -0.984497 5.359302 56 63 73
-1.554239 -1.065977 5.385655 153 153 154
-1.556771 -0.850746 5.400227 48 59 79
-1.553965 -0.831922 5.399500 140 141 142
-1.546255 -0.848094 5.394584 140 140 146
-1.539158 -0.927786 5.373283 30 35 53
-1.544179 -0.885543 5.391921 76 82 93
-1.529860 -0.980529 5.348795 170 170 171
-1.464221 -1.391206 5.130260 36 15 27
-1.530427 -1.340436 5.365226 20 9 16
-1.534339 -0.891756 5.387709 64 62 73
-1.536496 -1.897684 5.397443 29 30 48
-1.536496 -1.897684 5.397443 29 30 48
-1.436163 -1.564008 5.052909 144 102 108
-1.436177 -1.508210 5.059137 82 44 61
-1.527748 -1.912191 5.394788 77 75 96
-1.543525 -1.062867 5.449274 53 71 95
-1.430986 -1.522693 5.057897 63 29 46
-1.520154 -0.942724 5.373516 66 77 96
-1.520154 -0.942724 5.373516 66 77 96
-1.516473 -1.781552 5.362398 51 51 69
-1.451563 -1.368034 5.132432 24 14 24
-1.526884 -1.875119 5.404881 30 29 49
-1.450905 -1.492040 5.134082 28 5 18
-1.450905 -1.492040 5.134082 28 5 18
-1.521461 -0.871926 5.387814 162 163 165
-1.520869 -1.890397 5.402632 107 107 117
-1.511556 -1.796650 5.374313 117 111 119
-1.521126 -0.819477 5.410586 52 67 86
-1.521126 -0.819477 5.410586 52 67 86
-1.515827 -1.908870 5.407643 28 30 58
-1.441391 -1.448140 5.143522 33 16 28
-1.441391 -1.448140 5.143522 33 16 28
-1.516583 -1.857308 5.415914 27 28 50
-1.513368 -0.853603 5.404733 56 71 88
-1.501883 -1.807480 5.367908 35 32 56
-1.435719 -1.403040 5.130719 135 109 116
-1.508286 -0.975534 5.390696 65 79 104
-1.513497 -1.029457 5.427545 69 80 94
-1.501446 -1.918736 5.393329 81 81 101
-1.501114 -1.856043 5.424081 121 117 131
-1.536866 -1.121508 5.566348 50 51 62
-1.485776 -1.727037 5.391512 33 35 56
-1.490192 -0.776532 5.412528 28 15 21
-1.485998 -1.912497 5.401731 31 35 57
-1.490365 -0.874081 5.420971 28 32 43
-1.479825 -1.741760 5.393047 109 110 121
-1.474818 -1.664988 5.374521 27 22 36
-1.474818 -1.664988 5.374521 27 22 36
-1.484186 -1.895789 5.422616 17 21 39
-1.500385 -1.278836 5.479903 159 146 147
-1.486124 -1.850944 5.433785 28 29 48
-1.475631 -1.805456 5.397233 119 117 127
-1.485456 -1.001480 5.437216 58 74 99
-1.485456 -1.001480 5.437216 58 74 99
-1.477736 -0.833108 5.417555 64 78 100
-1.479794 -1.877994 5.434309 24 26 47
-1.434766 -1.021778 5.296221 115 116 119
-1.476546 -0.969722 5.456286 164 162 164
-1.459792 -1.747848 5.402336 115 113 128
-1.452876 -1.661862 5.376953 33 34 53
-1.505569 -1.096351 5.581788 113 111 114
-1.462096 -1.903950 5.430913 41 39 60
-1.467107 -1.009608 5.493606 61 70 88
-1.467107 -1.009608 5.493606 61 70 88
-1.399586 -1.410569 5.250749 145 141 146
-1.455588 -1.860631 5.465654 109 109 119
-1.455588 -1.860631 5.465654 109 109 119
-1.433459 -1.647762 5.382607 18 23 39
-1.414423 -1.459701 5.317110 25 23 40
-1.414423 -1.459701 5.317110 25 23 40
-1.414423 -1.459701 5.317110 25 23 40
-1.444357 -0.845945 5.431154 38 40 49
-1.443290 -1.727630 5.435073 28 30 51
-1.454485 -1.010119 5.504523 148 150 153
-1.434507 -1.904050 5.436597 108 107 121
-1.424860 -1.652083 5.400120 133 134 148
-1.424860 -1.652083 5.400120 133 134 148
-1.456799 -0.966603 5.526925 161 160 157
-1.441495 -1.857746 5.471120 19 22 39
-1.397133 -1.471476 5.308794 119 119 126
-1.420870 -1.633692 5.400216 34 31 48
-1.382728 -1.396161 5.262007 130 125 131
-1.419517 -1.616027 5.403166 151 144 157
-1.447160 -0.991728 5.519712 65 69 83
-1.428044 -1.891461 5.450261 33 35 56
-1.481161 -1.119388 5.651227 105 97 103
-1.386716 -1.462378 5.314247 27 27 48
-1.386716 -1.462378 5.314247 27 27 48
-1.419224 -1.698562 5.441731 139 136 145
-1.419224 -1.698562 5.441731 139 136 145
-1.422015 -1.875219 5.456167 117 117 129
-1.409751 -1.636002 5.412931 142 137 144
-1.384748 -1.486500 5.318825 36 39 58
-1.384748 -1.486500 5.318825 36 39 58
-1.415446 -1.897076 5.449466 117 115 126
-1.435555 -0.981203 5.535026 162 161 164
-1.366553 -1.396996 5.272575 34 33 48
-1.366553 -1.396996 5.272575 34 33 48
-1.415381 -1.861858 5.469591 32 36 58
-1.435639 -0.967189 5.549409 61 68 82
-1.435639 -0.967189 5.549409 61 68 82
-1.413055 -1.746285 5.464883 25 27 37
-1.409857 -1.883941 5.462295 30 30 40
-1.371928 -1.473618 5.313756 138 137 146
-1.371928 -1.473618 5.313756 138 137 146
-1.371928 -1.473618 5.313756 138 137 146
-1.417097 -1.813164 5.507725 20 23 39
-1.426119 -0.957607 5.560446 163 162 166
-1.392269 -1.867569 5.434645 103 101 115
-1.433278 -0.930701 5.597737 53 72 96
-1.359906 -1.462936 5.316642 29 30 49
-1.359906 -1.462936 5.316642 29 30 49
-1.349203 -1.396461 5.276988 157 155 164
-1.403930 -1.834556 5.495573 19 24 45
-1.388002 -0.836058 5.432800 146 147 153
-1.348829 -1.382020 5.280724 21 18 29
-1.397836 -1.855685 5.483415 34 37 52
-1.397836 -1.855685 5.483415 34 37 52
-1.398632 -1.819973 5.506084 130 129 136
-1.350623 -1.427286 5.320480 132 130 141
-1.348824 -1.450916 5.320136 156 153 162
-1.400074 -1.783629 5.526670 14 16 30
-1.347384 -1.470613 5.317585 146 145 155
-1.417870 -0.931341 5.602866 155 154 159
-1.388588 -1.802523 5.509238 36 38 51
-1.386365 -1.827683 5.510711 27 26 46
-1.386365 -1.827683 5.510711 27 26 46
-1.337722 -1.439553 5.326622 28 31 58
-1.387434 -1.791873 5.531703 128 122 135
-1.393921 -1.237354 5.556641 95 57 66
-1.407945 -0.954545 5.620248 164 159 163
-1.323643 -1.426180 5.324517 147 144 156
-1.323643 -1.426180 5.324517 147 144 156
-1.323643 -1.426180 5.324517 147 144 156
-1.323822 -1.448311 5.329498 151 150 157
-1.454526 -1.104117 5.857959 155 147 145
-1.394204 -0.829571 5.615503 115 115 125
-1.399615 -0.930169 5.639588 55 67 87
-1.371972 -1.823874 5.533581 34 35 61
-1.375450 -1.764382 5.561684 137 138 146
-1.397837 -1.312876 5.655368 115 96 98
-1.427222 -1.134341 5.777220 138 128 124
-1.398454 -1.693466 5.665987 31 29 41
-1.366989 -1.810623 5.547812 128 128 141
-1.366989 -1.810623 5.547812 128 128 141
-1.370202 -1.750512 5.578890 22 21 37
-1.370202 -1.750512 5.578890 22 21 37
-1.303840 -1.394614 5.309957 142 144 149
-1.362895 -1.797363 5.558177 25 27 42
-1.362895 -1.797363 5.558177 25 27 42
-1.337128 -1.481076 5.451938 96 100 113
-1.413702 -1.111862 5.797270 153 138 138
-1.297766 -1.424180 5.324860 155 155 165
-1.504658 0.587468 6.180480 147 138 121
-1.306796 -1.376682 5.367939 33 22 29
-1.366663 -1.703578 5.620452 27 26 40
-1.366663 -1.703578 5.620452 27 26 40
-1.376285 -1.678176 5.664236 89 89 100
-1.290353 -1.397507 5.321011 27 32 51
-1.352295 -1.795294 5.585807 38 41 59
-1.352295 -1.795294 5.585807 38 41 59
-1.383002 -0.914664 5.722706 42 48 63
-1.352617 -1.771235 5.612988 27 31 48
-1.352617 -1.771235 5.612988 27 31 48
-1.352617 -1.771235 5.612988 27 31 48
-1.355779 -1.759537 5.629829 114 113 123
-1.277861 -1.401359 5.335609 158 161 167
-1.339694 -1.791584 5.607152 24 26 47
-1.395321 -1.141020 5.842423 157 148 151
-1.395321 -1.141020 5.842423 157 148 151
-1.399097 -1.067458 5.866809 61 66 77
-1.339377 -1.779587 5.623634 128 127 134
-1.339377 -1.779587 5.623634 128 127 134
-1.349037 -1.743235 5.667765 40 38 60
-1.349037 -1.743235 5.667765 40 38 60
-1.385357 -1.108572 5.820406 140 128 130
-1.393220 -1.080870 5.881110 144 144 150
-1.359421 -1.179941 5.770906 130 124 135
-1.382769 -1.034787 5.872653 145 142 143
-1.326494 -1.774204 5.644036 130 127 134
-1.347417 -1.337260 5.730679 120 105 106
-1.376644 -0.935574 5.882715 144 143 143
-1.375051 -1.015695 5.879089 162 158 160
-1.339002 -1.355242 5.744692 95 79 88
-1.254853 -1.372397 5.388891 34 25 30
-1.335001 -1.261400 5.765920 56 68 92
-1.357079 -1.020417 5.862582 64 72 83
-1.346703 -1.193619 5.819771 150 141 149
-1.353678 -1.083746 5.876689 148 146 148
-1.336426 -1.217562 5.802451 145 142 153
-1.351241 -1.036341 5.872329 148 145 143
-1.351241 -1.036341 5.872329 148 145 143
-1.354796 -0.996931 5.889965 147 147 149
-1.323696 -1.343724 5.758037 130 115 123
-1.353170 -0.915796 5.896784 151 147 150
-1.353170 -0.915796 5.896784 151 147 150
-1.316831 -1.313246 5.753955 143 130 135
-1.334956 -1.160579 5.833793 126 125 130
-1.317798 -1.258837 5.773441 141 135 143
-1.317798 -1.258837 5.773441 141 135 143
-1.321289 -1.140139 5.820492 85 61 64
-1.307067 -1.332513 5.770543 86 59 61
-1.304903 -1.301269 5.770979 60 33 51
-1.331445 -0.995096 5.915656 153 152 154
-1.293202 -1.312730 5.767454 136 121 126
-1.324189 -1.014110 5.908706 67 81 95
-1.324189 -1.014110 5.908706 67 81 95
-1.280910 -1.318490 5.781904 85 55 60
-1.298370 -1.133538 5.899589 134 122 129
-1.298370 -1.133538 5.899589 134 122 129
-1.306109 -1.006952 5.943033 151 148 149
-1.262073 -1.219428 5.761302 154 150 156
-1.299671 -1.032288 5.940873 66 69 80
-1.270981 -1.277396 5.840011 52 62 89
-1.303572 -0.906264 6.014286 63 65 75
-1.260336 -1.330309 5.838902 90 57 63
-1.246236 -1.309940 5.827748 146 136 136
-1.246236 -1.309940 5.827748 146 136 136
-1.269329 -0.906246 6.044513 100 98 101
-1.271084 -0.997610 6.060383 36 36 43
-1.253260 -0.971674 6.023483 153 150 152
-1.257336 -1.020590 6.059347 54 57 64
-1.257336 -1.020590 6.059347 54 57 64
-1.222686 -1.326769 5.945191 152 139 142
-1.222686 -1.326769 5.945191 152 139 142
-1.163477 -1.689786 5.677145 19 17 18
-1.218480 -1.387649 5.942931 122 105 111
-1.241781 -0.924721 6.080172 143 143 144
-1.182600 -1.521900 5.823130 8 4 8
-1.153941 -1.667748 5.691832 24 22 26
-1.153941 -1.667748 5.691832 24 22 26
-1.185851 -1.516214 5.850703 14 9 13
-1.237460 -0.888930 6.102543 159 154 158
-1.156280 -1.620551 5.710807 26 23 22
-1.222828 -0.962858 6.057313 159 157 162
-1.199114 -1.381064 5.960559 132 120 128
-1.227389 -0.913535 6.099093 59 88 124
-1.220317 -1.025436 6.084927 56 77 104
-1.220317 -1.025436 6.084927 56 77 104
-1.232934 -1.102834 6.162736 37 41 52
-1.186044 -1.356725 5.965585 142 131 132
-1.186044 -1.356725 5.965585 142 131 132
-1.128661 -1.627602 5.749551 20 13 17
-1.191457 -0.987711 6.072111 70 77 90
-1.125304 -1.634356 5.743258 32 22 20
-1.118912 -1.694460 5.729520 18 17 21
-1.190429 -1.125689 6.106566 138 126 127
-1.190429 -1.125689 6.106566 138 126 127
-1.109472 -1.701406 5.724434 13 11 14
-1.109472 -1.701406 5.724434 13 11 14
-1.139910 -1.496016 5.904745 101 82 82
-1.175001 -1.037500 6.085509 149 147 148
-1.180802 -0.919347 6.139996 68 76 89
-1.180802 -0.919347 6.139996 68 76 89
-1.171651 -0.926140 6.139169 78 84 98
-1.118077 -1.499405 5.865995 17 8 13
-1.170902 -0.992630 6.153523 157 155 161
-1.164594 -0.958426 6.138731 159 156 158
-1.161641 -0.903991 6.136292 167 165 170
-1.157218 -1.129398 6.195739 82 77 82
-1.148762 -1.008956 6.153273 54 79 110
-1.135314 -1.030483 6.175473 162 161 159
-1.160603 -1.360124 6.319349 51 69 100
-1.160603 -1.360124 6.319349 51 69 100
-1.124719 -0.959608 6.183161 152 151 153
-1.122357 -1.028825 6.191556 58 72 88
-1.122357 -1.028825 6.191556 58 72 88
-1.119547 -0.981088 6.180284 64 76 97
-1.118481 -0.939887 6.185587 62 79 113
-1.108502 -1.164176 6.151269 143 133 132
-1.120099 -1.120921 6.258020 153 151 155
-1.090320 -1.422049 6.113079 120 106 105
-1.106775 -0.917409 6.214643 159 158 157
-1.098918 -0.985745 6.200509 167 163 162
-1.096421 -0.945507 6.196058 165 164 176
-1.098599 -1.212713 6.223828 150 142 144
-1.092772 -1.012490 6.239385 162 160 159
-1.064646 -1.413615 6.105643 137 127 129
-1.063589 -0.959204 6.217178 167 165 167
-1.063589 -0.959204 6.217178 167 165 167
-1.065205 -0.996798 6.231554 163 160 161
-1.033435 -1.344551 6.118904 89 58 63
-1.037407 -1.314415 6.180768 141 143 156
-1.034927 -0.985512 6.264725 165 168 162
-1.029208 -1.002221 6.280574 68 80 100
-1.014688 -0.968147 6.322016 162 161 157
-0.996049 -1.491687 6.272446 25 12 17
-1.005527 -1.000587 6.326612 64 82 105
-1.004692 -1.376174 6.336380 126 108 111
-1.011723 -1.033777 6.378323 140 136 144
-0.997435 -1.363703 6.338057 44 31 30
-0.993953 -0.976147 6.325170 67 81 108
-0.989063 -0.937297 6.318770 154 153 159
-0.946196 -0.915272 6.372834 25 17 18
-0.945004 -0.936514 6.373902 166 162 162
-0.928839 -0.945254 6.389558 28 21 19
-0.840266 -0.914632 6.583239 32 19 17
-0.840266 -0.914632 6.583239 32 19 17
-0.764353 -2.702141 9.073182 40 31 37
-0.764353 -2.702141 9.073182 40 31 37
-0.640314 -2.437811 8.289924 39 30 35
-0.158867 1.575516 4.901714 81 80 48
-0.158319 1.509043 5.338905 82 69 49
-0.201094 1.484519 9.300987 29 26 16
-0.201094 1.484519 9.300987 29 26 16
-0.201094 1.484519 9.300987 29 26 16
-0.090141 1.529558 5.087121 168 158 135
-0.132843 1.527547 8.696218 108 94 68
-0.132843 1.527547 8.696218 108 94 68
-0.073149 1.679927 4.933876 13 13 10
-0.088530 1.544226 7.559216 89 82 66
-0.090001 1.516832 8.909522 23 23 19
-0.090001 1.516832 8.909522 23 23 19
-0.048402 1.538224 5.094871 34 37 20
-0.043248 1.570589 5.088683 135 123 106
-0.043248 1.570589 5.088683 135 123 106
-0.036962 1.587267 5.092144 26 23 11
-0.013592 1.553824 5.138829 106 104 90
-0.013592 1.553824 5.138829 106 104 90
-0.002237 1.587083 5.146971 25 23 13
-0.002237 1.587083 5.146971 25 23 13
-0.000541 1.527534 5.238110 169 157 142
0.026317 1.447195 10.241036 33 27 15
0.026317 1.447195 10.241036 33 27 15
0.014454 1.574457 5.207340 41 36 25
0.021388 1.538416 5.669387 56 45 18
0.117994 5.733689 23.559402 138 132 107
0.055081 1.108829 11.305152 130 119 97
0.035895 1.540043 5.266626 164 161 131
0.035895 1.540043 5.266626 164 161 131
0.055889 1.762189 4.819324 43 51 63
0.114133 1.463491 10.055085 33 30 19
0.115573 1.532086 9.230663 91 85 69
0.132603 1.503871 9.845466 32 28 17
0.098198 2.780293 3.953213 130 124 109
0.145408 1.553224 5.486245 114 106 90
0.142455 1.558617 4.885457 161 107 115
0.117220 2.784548 3.905775 72 66 50
0.126107 2.793712 3.901761 128 123 109
0.235210 1.575798 7.320073 134 119 93
0.155434 1.769764 4.727517 78 93 90
0.183730 1.547627 5.544168 26 22 12
0.238606 1.574348 7.153553 32 28 12
0.359691 1.439684 10.767456 90 81 67
0.135808 2.780864 3.926128 54 48 30
0.172539 1.558693 5.022970 153 116 120
0.163305 1.758607 4.723923 36 54 56
0.145135 2.799523 3.937924 130 126 112
0.174988 1.762148 4.733660 79 101 94
0.227227 1.548588 5.616036 123 112 93
0.243493 1.586180 5.603037 22 19 7
0.243493 1.586180 5.603037 22 19 7
0.271040 1.604782 5.632390 24 24 16
0.276590 1.649811 5.641016 100 100 98
0.276590 1.649811 5.641016 100 100 98
0.488412 1.436880 9.924429 51 48 46
0.488412 1.436880 9.924429 51 48 46
1.521667 8.683219 30.717962 97 91 81
0.325551 1.566207 6.455962 51 44 36
0.201739 2.788080 3.915918 126 119 104
0.323077 1.555908 5.788856 23 21 6
0.562829 1.301615 10.160419 13 11 14
0.446284 1.587313 7.492953 110 102 81
0.235243 2.794986 3.869231 85 78 62
0.362832 1.601392 5.809979 26 22 16
0.362832 1.601392 5.809979 26 22 16
0.629850 1.220645 10.021152 85 69 47
0.712826 0.752186 11.244401 19 11 9
0.384142 1.557555 5.913667 130 122 98
0.257350 2.794530 3.925525 131 124 108
0.390588 1.572501 5.892716 29 24 10
0.522191 1.589257 7.796592 43 36 22
0.322121 1.704679 4.716419 163 87 92
0.626693 1.627090 8.803095 32 25 11
0.344466 1.749738 4.679235 181 177 121
0.347862 1.639752 4.712259 48 57 50
0.350174 1.622381 4.723990 97 109 96
0.467233 1.588328 6.007958 18 17 10
0.775424 1.504180 9.892734 78 78 73
0.775424 1.504180 9.892734 78 78 73
0.427051 1.594525 5.364218 190 175 145
0.427051 1.594525 5.364218 190 175 145
0.489265 1.554314 6.133015 167 155 133
0.687998 1.607590 8.523059 43 35 22
0.383994 1.713958 4.682474 65 53 69
0.501581 1.669273 6.043596 85 76 66
0.512524 1.563146 6.158623 44 37 24
0.390184 1.654440 4.694955 149 144 99
0.390184 1.654440 4.694955 149 144 99
0.390184 1.654440 4.694955 149 144 99
0.525938 1.572273 6.138266 142 135 119
0.404131 1.618706 4.712284 92 105 106
0.617748 1.584143 7.148406 31 25 15
2.080463 5.677680 24.135960 33 25 14
0.409778 1.680430 4.694336 62 73 69
0.872583 1.284345 9.999259 96 82 61
0.353029 2.804145 3.906180 79 71 58
0.825862 1.634200 9.146056 35 30 18
0.357432 2.806435 3.931761 130 122 109
0.705277 1.604639 7.659426 75 64 46
0.737143 1.578844 7.995841 32 27 11
0.758503 1.601459 7.984855 29 23 8
0.890702 1.638981 9.279184 25 23 14
0.454352 1.676977 4.690121 33 45 59
0.613604 1.558572 6.320572 91 84 65
0.620785 1.673316 6.235798 121 112 101
0.620785 1.673316 6.235798 121 112 101
0.629741 1.601982 6.302252 106 98 79
0.824887 1.586805 8.160231 34 30 18
0.433891 2.800111 4.239045 142 136 122
0.407165 2.804482 3.945335 146 140 124
0.402017 2.815328 3.824423 88 81 66
1.036548 1.593890 9.846111 10 8 8
1.063213 1.573870 9.908546 66 66 62
1.073359 1.623530 9.905073 10 8 3
0.699714 1.595057 6.431195 17 17 9
0.556326 1.477010 4.890131 22 28 38
1.147274 1.351364 10.032017 76 62 36
0.561294 1.431995 4.881240 152 157 156
0.560128 1.443084 4.869837 26 34 42
0.535254 1.790524 4.616433 53 71 95
0.757377 1.659534 6.519701 107 95 77
0.762177 1.583380 6.561349 117 103 85
0.779155 1.699144 6.552873 31 25 13
0.779155 1.699144 6.552873 31 25 13
0.578596 1.453641 4.848415 30 35 42
0.578596 1.453641 4.848415 30 35 42
0.865177 1.569370 7.190259 43 37 21
0.583295 1.426918 4.839812 31 41 40
0.584731 1.489413 4.831834 46 54 64
0.567784 1.703823 4.637334 44 55 61
0.598880 1.428810 4.850982 74 89 93
0.598880 1.428810 4.850982 74 89 93
0.831007 1.641873 6.662490 124 115 94
0.580325 1.721609 4.633136 58 68 73
0.544086 2.806515 4.283442 88 81 65
0.610777 1.403958 4.848982 90 100 108
0.610777 1.403958 4.848982 90 100 108
0.855280 1.657256 6.737806 46 40 21
0.756804 1.621339 5.946465 180 173 109
0.621410 1.387020 4.858770 88 97 108
0.870667 1.667204 6.730155 115 103 82
0.534956 2.813077 4.075718 134 127 110
0.903414 1.570872 6.882452 40 38 26
0.618988 1.787167 4.577983 8 20 38
1.428685 1.218482 10.500048 80 71 66
0.824435 1.620386 6.027857 48 53 58
0.971394 1.611288 6.948011 36 33 24
1.386595 1.659385 9.890804 5 4 0
0.555705 2.817391 3.944656 131 123 106
0.650459 2.823190 4.572139 144 136 123
0.650459 2.823190 4.572139 144 136 123
1.411275 1.659741 9.853253 8 9 7
1.279862 1.623673 8.914814 22 19 7
0.650988 2.816835 4.368690 140 133 117
0.617593 2.821394 4.117736 144 138 125
1.084142 1.616147 7.165659 30 22 10
1.084142 1.616147 7.165659 30 22 10
1.083115 1.678111 7.113238 113 105 85
1.330545 1.652283 8.731226 84 78 59
1.102345 1.628347 7.186930 127 120 102
1.125517 1.637912 7.233575 21 18 10
1.131476 1.622060 7.256422 127 114 99
1.119405 1.693143 7.168702 24 22 27
1.028515 1.635392 6.583577 63 47 53
0.744633 1.499099 4.710226 64 78 86
0.757563 1.518400 4.701692 11 16 21
1.213467 1.607950 7.431204 120 109 84
0.766746 1.491718 4.709462 46 56 56
1.205644 1.689441 7.352034 109 103 96
1.226604 1.587874 7.482062 42 35 20
1.226604 1.587874 7.482062 42 35 20
1.127766 1.647072 6.811207 134 83 88
0.696202 2.824028 4.192821 147 137 121
1.262257 1.589941 7.611547 110 99 69
0.794743 1.452981 4.782989 94 110 120
0.790803 1.484639 4.695755 156 163 162
0.788380 1.520216 4.678423 24 33 41
0.797489 1.451891 4.729919 54 64 66
0.792896 1.521978 4.699315 35 51 59
1.803553 1.298793 10.527041 86 78 64
0.804841 1.513961 4.682902 145 154 155
1.790307 1.261318 10.326603 95 90 73
1.625619 1.654845 9.353358 28 24 10
0.853004 1.399320 4.912435 37 39 44
0.803638 1.664404 4.618794 49 70 97
0.829562 1.465302 4.763529 176 181 180
1.374575 1.600838 7.824412 83 79 53
0.751093 2.829877 4.248005 142 133 118
0.820338 1.526834 4.661203 52 68 70
0.836087 1.416439 4.739830 28 32 36
1.729345 1.579799 9.707265 45 44 40
1.398129 1.607366 7.797079 35 27 10
1.416022 1.609003 7.877105 127 112 96
1.282764 1.646184 7.130764 115 82 79
1.635868 1.657891 9.074291 79 72 55
0.853626 1.457121 4.751615 61 80 85
0.770708 2.830758 4.250331 141 134 116
1.408255 1.665710 7.761057 22 20 10
1.429757 1.642921 7.852298 93 90 74
0.868283 1.449678 4.766782 45 61 60
0.873497 1.514890 4.760790 173 173 173
1.448695 1.630027 7.887184 24 22 9
1.448695 1.630027 7.887184 24 22 9
1.446324 1.677317 7.830220 79 76 65
1.446324 1.677317 7.830220 79 76 65
1.739915 1.664617 9.340631 29 26 21
1.451216 1.690140 7.774627 31 34 41
1.451216 1.690140 7.774627 31 34 41
1.286279 1.665869 6.628170 53 51 53
1.889658 1.561872 9.708337 38 37 32
0.978808 1.445429 5.012848 87 101 108
1.405910 2.143288 7.107106 36 43 48
0.839697 2.839847 4.240444 146 139 121
0.887180 1.696305 4.502507 86 91 80
0.977770 1.467703 4.959348 149 153 155
0.977770 1.467703 4.959348 149 153 155
1.959254 1.692234 9.859641 9 9 6
0.893062 1.728380 4.505801 143 139 108
1.435594 1.687763 7.197155 41 45 53
1.333139 1.676354 6.650312 39 48 59
0.901378 1.775698 4.508251 40 41 43
1.700783 1.631682 8.474579 31 25 12
0.987572 1.469647 4.929096 65 83 88
1.980459 1.623388 9.781770 72 68 65
1.014370 1.469597 5.007902 172 174 172
0.912796 1.707704 4.498341 129 105 95
0.907624 2.843498 4.412932 147 140 124
0.839143 2.841429 4.080042 137 128 111
1.728644 1.706225 8.375464 115 98 83
0.877787 2.838464 4.239749 94 87 69
1.381749 1.686112 6.680625 124 95 92
0.958308 2.842520 4.598122 119 111 97
2.165512 1.388417 10.453363 85 79 61
1.715767 1.733171 8.252012 42 36 35
1.882654 1.653839 9.037019 103 94 76
1.793121 1.653250 8.591280 22 15 6
0.936607 1.790418 4.478962 163 88 91
1.784107 1.696816 8.483542 22 19 12
0.974227 2.850670 4.608818 59 51 33
0.943669 1.735119 4.496704 25 36 35
1.824199 1.687393 8.631637 26 26 19
0.848397 2.847693 4.013483 155 148 136
0.957323 2.850930 4.462205 147 139 126
2.326077 1.512344 10.583280 90 83 71
1.007937 2.849078 4.552513 132 124 113
0.986263 2.853236 4.408574 102 95 77
2.057775 1.679342 9.194161 134 117 98
2.005989 1.791388 8.958989 39 33 28
1.162065 1.463105 5.172998 32 43 44
2.508643 1.528098 10.942312 12 10 11
2.154562 1.670631 9.363180 16 13 5
1.075508 2.862793 4.611510 79 72 56
2.530507 1.596796 10.838705 10 8 9
1.633000 1.724130 6.976869 51 44 55
1.053655 2.855272 4.488087 80 73 55
2.177930 1.800802 9.283435 76 71 62
0.992768 2.856877 4.227034 101 93 77
2.200916 1.757241 9.343141 23 20 15
2.200916 1.757241 9.343141 23 20 15
2.658105 1.510723 11.255810 67 56 43
1.128344 2.869010 4.744812 98 95 83
1.774006 1.725056 7.487803 129 95 90
2.234275 1.778933 9.402183 89 81 63
0.959805 2.860219 4.022782 151 141 130
2.809939 1.379173 11.700291 7 5 1
1.055516 1.878306 4.387448 4 1 6
2.803626 1.455452 11.625163 60 55 50
1.058913 1.867220 4.394081 63 76 82
2.832900 1.405609 11.710999 80 72 72
1.097951 2.858511 4.494704 133 124 114
1.085305 2.861985 4.432633 147 141 123
1.111292 2.861105 4.526102 135 128 118
1.040060 2.862143 4.227151 148 141 125
2.537087 1.695498 10.195628 78 72 52
2.447318 0.782097 9.779866 24 13 11
1.926230 1.765668 7.701847 119 76 71
1.926230 1.765668 7.701847 119 76 71
2.548801 1.751585 10.129821 30 24 11
2.690162 1.696535 10.695505 83 77 69
1.692851 1.731012 6.700858 107 87 82
1.902358 1.744588 7.494913 47 37 48
1.059070 2.867304 4.140462 150 142 131
2.671253 1.731426 10.394984 109 99 92
2.429015 1.782016 9.366415 37 33 27
2.838946 1.702443 10.828103 44 40 31
1.686831 1.735231 6.377416 134 120 99
1.123003 2.867668 4.228258 152 149 134
2.933464 1.755156 11.010983 106 97 83
2.977900 1.707431 11.106129 105 97 87
2.987750 1.705835 11.139980 103 95 85
1.200832 2.877943 4.428562 151 146 135
1.107505 2.874196 4.064692 99 87 69
3.068943 1.776151 11.164434 26 22 10
1.802566 1.753362 6.509356 46 53 62
1.044887 -2.618908 3.737605 109 101 92
1.035606 -2.624679 3.669718 72 66 56
2.715549 1.802605 9.647829 42 37 36
1.032520 -2.607457 3.641962 64 57 49
1.306870 2.884310 4.599324 29 23 12
1.076306 -2.625762 3.765313 72 64 53
1.021668 -2.615669 3.587227 54 50 41
1.012207 -2.608445 3.550224 93 88 77
2.353245 1.794777 8.173293 44 38 42
1.237024 2.878530 4.266598 100 93 75
1.162026 2.887843 4.024190 139 132 116
3.290565 1.761678 11.304362 15 10 7
2.390936 1.806259 8.189453 39 38 45
1.865896 1.721548 6.239136 137 93 77
1.903106 1.719478 6.295060 35 34 42
1.308390 2.888384 4.302332 162 155 140
1.308390 2.888384 4.302332 162 155 140
3.075678 1.678662 10.093839 134 127 113
1.233925 2.895718 4.035456 146 139 122
2.592955 1.854758 8.418157 38 31 26
1.919717 1.744795 6.203346 57 51 58
3.051398 1.832965 9.782610 83 57 59
3.069134 1.854634 9.815995 86 62 61
3.069134 1.854634 9.815995 86 62 61
2.454358 1.843265 7.842927 48 43 44
1.292087 2.901762 4.073321 131 124 106
1.292087 2.901762 4.073321 131 124 106
2.100754 1.789443 6.504753 62 56 69
1.445084 2.905862 4.454316 136 131 115
1.373795 2.901929 4.218515 90 83 67
2.013278 1.770155 6.166013 72 65 72
2.078489 1.794410 6.337751 120 102 82
3.280044 1.825372 9.873004 20 21 21
3.267830 1.873885 9.820722 141 123 99
1.410126 2.905605 4.243395 146 138 124
2.239007 1.814202 6.715150 57 57 58
1.414210 2.911576 4.235737 79 72 54
2.135647 1.793766 6.323985 143 132 111
1.419770 2.909596 4.199401 156 149 133
1.462976 2.911688 4.321127 97 90 70
3.375766 1.910369 9.935454 34 29 30
3.375766 1.910369 9.935454 34 29 30
2.328497 1.830504 6.850646 52 52 49
3.377487 1.832511 9.912127 40 19 19
1.521527 2.915742 4.452918 126 118 107
3.399033 1.826461 9.875616 30 16 11
2.857657 1.943864 8.283145 46 45 47
3.488276 1.789780 10.106687 43 37 34
3.567671 1.801454 10.208326 39 32 23
3.549948 1.812181 10.084620 85 55 40
3.586144 1.797162 10.182952 133 118 87
3.586144 1.797162 10.182952 133 118 87
3.592292 1.779681 10.178168 139 123 88
2.413417 1.832349 6.830330 151 146 126
1.623299 2.923384 4.569961 81 73 59
3.566550 2.031481 9.924445 20 21 29
3.124847 1.999992 8.502505 113 88 83
3.116624 1.989483 8.301802 50 37 37
2.713090 1.895329 7.144677 90 85 91
2.981159 1.958013 7.741619 112 81 82
3.711918 2.096992 9.532473 117 101 97
3.711918 2.096992 9.532473 117 101 97
2.325977 1.814995 5.954000 45 59 59
3.141879 1.995097 8.001085 47 45 51
3.404302 2.047736 8.657576 50 40 46
3.992524 2.117042 10.130909 15 10 10
4.306282 1.811823 10.933373 49 35 35
4.306282 1.811823 10.933373 49 35 35
2.468931 1.834655 6.229559 57 51 56
2.486633 1.813786 6.263572 121 86 84
2.293994 1.807092 5.786969 44 57 60
2.420531 1.822571 6.094876 170 149 125
2.349330 1.811557 5.879196 57 63 66
4.078447 2.090323 10.119655 67 68 58
2.591937 1.845275 6.403643 125 89 93
4.111600 2.127648 10.116724 10 8 8
2.576339 1.848135 6.333398 136 95 100
1.824023 2.963048 4.460626 81 75 55
1.769085 2.967667 4.328342 98 91 73
4.340705 1.971285 10.583622 98 68 75
2.324036 1.815578 5.656668 67 56 68
2.594919 1.854088 6.297024 130 92 91
4.274601 2.105223 10.312652 93 62 59
3.292918 2.000606 7.841123 101 78 81
4.315831 2.156242 10.162688 12 11 7
4.445170 2.211089 10.394565 13 11 10
4.445170 2.211089 10.394565 13 11 10
4.558969 2.019704 10.652499 95 64 73
4.558969 2.019704 10.652499 95 64 73
2.406814 1.781005 5.585977 55 58 69
4.528080 2.227761 10.395466 9 1 1
2.537154 1.825925 5.844381 92 57 60
1.964605 2.987389 4.523404 20 13 7
2.684202 1.852375 6.160951 62 69 81
1.926937 2.980740 4.415984 158 151 134
1.934187 2.979453 4.429892 81 73 54
1.934187 2.979453 4.429892 81 73 54
2.465005 1.801345 5.641420 196 178 148
4.573538 2.219372 10.329644 21 19 24
3.596256 2.043682 8.110907 46 41 44
2.773789 1.856004 6.259497 89 92 76
4.703839 2.210808 10.555795 141 125 102
2.681531 1.839336 6.013331 58 62 71
4.757911 2.093856 10.566518 38 38 42
4.757911 2.093856 10.566518 38 38 42
4.681303 2.227851 10.358361 26 25 22
4.681303 2.227851 10.358361 26 25 22
2.559043 1.804241 5.681869 52 39 46
4.958569 2.066396 10.944533 88 49 33
4.958569 2.066396 10.944533 88 49 33
4.836748 2.136236 10.647753 34 34 37
5.098975 2.036464 11.205705 125 122 96
4.810378 2.148717 10.539813 34 33 37
3.103299 1.925783 6.804715 48 43 50
3.551817 2.009406 7.783434 92 72 74
3.134011 1.925896 6.853352 98 81 84
5.559593 2.041747 12.102750 91 91 78
3.621483 2.014637 7.842211 103 75 77
5.560448 2.014678 12.022990 64 66 56
2.832381 1.854873 6.109076 59 57 63
2.946458 1.881755 6.346188 71 71 59
5.190513 2.124813 10.914406 103 63 65
4.621342 2.228103 9.674276 44 40 39
2.735059 1.832045 5.721832 98 99 95
4.955490 2.312749 10.298531 35 34 31
4.955490 2.312749 10.298531 35 34 31
3.297646 1.952778 6.866888 153 150 135
3.167587 1.917169 6.559937 123 84 83
5.159784 2.200254 10.652069 94 55 56
5.159784 2.200254 10.652069 94 55 56
2.177646 3.021925 4.501749 116 109 93
2.830525 1.827785 5.849812 49 51 67
3.161268 1.914323 6.495158 48 41 42
3.632502 2.000936 7.429432 141 138 126
3.731572 2.020674 7.554734 53 53 56
2.951503 1.836187 5.927259 57 50 52
2.407416 3.042007 4.822294 114 107 91
5.472158 2.249331 10.915289 93 59 49
5.472158 2.249331 10.915289 93 59 49
5.472158 2.249331 10.915289 93 59 49
3.012656 1.859895 5.981949 71 64 71
3.012656 1.859895 5.981949 71 64 71
2.936698 1.837746 5.813245 61 49 58
3.071073 1.852011 5.989901 164 160 92
3.085925 1.885999 5.983985 62 60 66
3.169724 1.881278 6.119482 168 166 111
3.082817 1.890696 5.928634 129 96 90
3.310598 1.905951 6.346067 168 169 129
8.151759 2.467199 15.561085 108 111 110
3.297731 1.898783 6.296859 52 59 54
3.269414 1.897118 6.237046 59 69 70
3.674185 1.971879 6.924211 111 87 95
3.374561 1.914992 6.357144 49 57 62
2.846559 1.929723 5.368746 42 49 54
5.700607 2.363660 10.638870 3 0 2
2.975944 1.953148 5.558813 172 160 114
5.709250 2.352356 10.576329 9 3 2
4.763283 2.139981 8.776624 37 41 44
4.763283 2.139981 8.776624 37 41 44
3.000119 2.016251 5.545868 50 44 48
2.970694 2.039762 5.478842 123 73 74
3.644628 1.965521 6.653858 122 89 79
3.333742 2.013731 6.017593 85 88 84
3.522981 2.010230 6.338307 34 29 31
3.453135 2.028875 6.211132 103 81 77
4.307161 2.062675 7.714116 34 30 27
3.497370 2.037803 6.269208 39 40 52
3.443617 2.055845 6.153815 93 82 86
4.356547 2.085706 7.667349 34 27 24
4.676799 2.141675 8.186026 50 38 37
3.130482 3.141993 5.476746 41 33 22
4.621138 2.161874 7.948074 151 135 108
2.863760 3.128340 4.871527 112 104 91
